ply
format ascii 1.0
comment Created in Blender version 4.0.1
element vertex 1067
property float x
property float y
property float z
property uchar red
property uchar green
property uchar blue
property uchar alpha
end_header
-2.1183949 0.8311506 -3.4978456 75 90 145 255
-2.148183 0.86644334 -3.4298856 83 83 86 255
-2.10333 1.2828059 -3.186528 71 58 43 255
-1.6052145 1.7604461 -5.544352 68 64 44 255
-1.6819519 1.7822884 -4.22477 20 16 13 255
-1.4250038 1.7899987 -3.480848 35 18 16 255
-1.259109 1.8143208 -4.102903 92 83 66 255
-1.3084528 1.8244731 -3.9251454 101 88 79 255
-1.181033 1.8206006 -4.3961973 91 83 66 255
-1.1645005 1.8032407 -3.7884889 18 11 19 255
-0.82632536 1.8508466 -4.777167 24 16 24 255
-0.31287348 1.413544 -3.151497 69 27 29 255
-2.238585 -0.042033907 -3.1169918 99 97 76 255
-2.3072298 0.64076406 -2.9066668 233 239 250 255
-2.018645 0.80432516 -2.8003254 109 104 83 255
-2.157197 0.9176236 -3.3340967 18 11 19 255
-2.0492938 1.2978863 -3.554394 82 66 47 255
-1.8416616 1.3764131 -2.8641412 52 5 13 255
-1.6682308 1.6108528 -5.1258965 141 144 147 255
-1.4465296 1.2752718 -1.4933159 173 147 134 255
-1.6237082 1.7267066 -5.5528407 88 79 63 255
-1.673089 1.7116181 -4.187482 95 91 66 255
-1.7989671 1.806539 -4.0659685 23 13 11 255
-1.733416 1.8062264 -4.2270246 50 42 33 255
-1.6951445 1.8087816 -4.126601 69 65 43 255
-1.4935238 1.7693018 -3.0657165 28 11 13 255
-1.4683503 1.7783059 -3.217951 42 23 21 255
-1.4677067 1.756804 -2.9030678 98 84 75 255
-1.4176466 1.7991043 -3.5516744 34 16 9 255
-1.4039835 1.7644604 -3.1636047 58 38 34 255
-1.3755376 1.804237 -3.5799837 87 75 64 255
-1.3075465 1.8020207 -3.7437713 58 28 28 255
-1.3075465 1.8020207 -3.7437713 58 28 28 255
-1.3297592 1.7778654 -3.14219 16 14 27 255
-1.2971236 1.7835823 -3.3088706 17 8 24 255
-1.2790428 1.7929244 -3.4764836 21 11 26 255
-1.2446012 1.8012096 -3.6389701 19 10 24 255
-1.3390303 1.7168534 -2.1838198 160 131 115 255
-1.1780151 1.8187343 -4.150396 17 7 11 255
-1.2162622 1.8113482 -3.801906 14 13 21 255
-1.1473327 1.8291633 -4.3350406 19 11 14 255
-1.0533502 1.8308667 -4.469204 87 73 57 255
-1.1319956 1.8059852 -3.7602994 17 7 16 255
-1.0364618 1.8351352 -4.5675216 26 11 17 255
-1.0802641 1.8151016 -4.081217 86 76 65 255
-1.1164913 1.810453 -3.8112233 95 83 67 255
-1.1331013 1.7856617 -3.44401 16 10 25 255
-1.0376539 1.7970743 -3.6985447 60 16 21 255
-1.0465817 1.779034 -3.4121728 98 89 77 255
-1.1340603 1.7525142 -2.406856 81 47 10 255
-1.0072267 1.7644223 -3.1726236 28 17 30 255
-0.97049785 1.7776988 -3.4118576 96 86 76 255
-0.9636833 1.7735922 -3.4105046 96 86 76 255
-0.90836376 1.8162026 -4.022924 78 61 54 255
-0.9803719 1.7591685 -3.0333931 122 110 97 255
-0.9137901 1.8031695 -3.8052895 13 9 19 255
-0.8738929 1.8327888 -4.3157096 84 76 57 255
-0.89335257 1.8089335 -3.9784315 77 61 44 255
-0.89335257 1.8089335 -3.9784315 77 61 44 255
-0.85236335 1.8183072 -4.2225204 19 6 13 255
-0.9171844 1.7953008 -3.6095383 99 88 76 255
-0.6235774 1.8629502 -4.9617863 0 0 0 255
-0.9283011 1.7617759 -3.0852075 29 13 25 255
-0.8270347 1.829505 -4.2533536 20 9 18 255
-0.82452744 1.8237652 -4.189065 85 76 63 255
-0.8220426 1.8127623 -4.0558105 84 72 58 255
-0.8220426 1.8127623 -4.0558105 84 72 58 255
-0.7975347 1.813971 -4.19742 41 11 16 255
-0.7930579 1.8079253 -4.0375214 10 6 17 255
-0.8283028 1.7925011 -3.6778054 88 79 66 255
-0.7758024 1.8197697 -4.137531 47 14 20 255
-0.82736087 1.770002 -3.2880137 20 14 26 255
-0.8553429 1.7626957 -3.0635936 80 19 31 255
-0.65756655 1.8272486 -4.382702 24 13 18 255
-0.71724653 1.7753807 -3.3840766 109 95 87 255
-1.3467357 0.06351694 -1.8261211 180 163 158 255
-2.3141448 0.55272174 -2.9096441 246 253 253 255
-2.2711987 0.77527124 -2.9181764 116 114 93 255
-2.1982143 0.7839547 -3.1453295 101 98 93 255
-2.1532497 0.8210929 -3.2746096 17 17 23 255
-2.152765 0.9002267 -3.275434 10 8 13 255
-2.222611 0.9193827 -3.1685061 75 76 63 255
-2.203528 0.9265705 -3.2604876 80 78 64 255
-2.1156998 0.95314956 -3.7884977 106 100 86 255
-2.1690638 1.2702135 -3.2226076 79 77 61 255
-2.074121 1.2830797 -3.4523473 62 46 23 255
-1.3445213 1.0763363 -2.0731132 169 149 140 255
-1.8518245 1.3372247 -2.7880514 3 3 14 255
-1.878888 1.3706099 -2.8757377 87 84 70 255
-1.9818 1.6369891 -3.801049 51 46 27 255
-1.5696429 1.6708 -5.0836 107 109 87 255
-1.7072659 1.6923567 -4.139855 89 78 59 255
-1.7280669 1.5789865 -2.584424 88 77 53 255
-1.8234779 1.7809641 -3.933056 83 78 51 255
-1.5962073 1.867642 -5.522033 16 6 13 255
-1.6683391 1.8070122 -4.2654023 43 34 23 255
-1.2907497 1.7829525 -3.2801113 14 10 24 255
-1.2654518 1.790484 -3.4455056 19 13 19 255
-1.1330799 1.8142701 -3.9462647 21 19 21 255
-1.0821236 1.817793 -3.9807014 47 18 19 255
-1.0963153 1.8014942 -3.7008266 17 16 21 255
-1.0792418 1.7916781 -3.6205275 96 86 76 255
-1.121906 1.7531147 -2.9499617 80 26 24 255
-0.98728704 1.8248236 -4.3168645 55 33 21 255
-1.3111613 1.7372439 -1.5275959 169 119 69 255
-1.0793886 1.7568125 -3.0228648 123 107 86 255
-1.0746275 1.7523777 -2.9667535 10 13 28 255
-1.036552 1.7594153 -3.22647 13 11 25 255
-1.0514909 1.7638017 -3.192897 115 103 101 255
-1.0078058 1.8140363 -3.8861573 14 13 20 255
-1.0336958 1.7731787 -3.3325624 11 13 26 255
-0.9001108 1.8596749 -4.896903 47 27 25 255
-0.97341186 1.8075926 -3.9354403 86 77 46 255
-1.0509113 1.7562852 -2.9570668 138 121 111 255
-1.00374 1.7753992 -3.3509085 14 10 23 255
-0.9374186 1.8198248 -4.06272 91 83 64 255
-0.9933358 1.7497989 -3.0031834 19 18 35 255
-0.9806624 1.7540954 -3.067019 13 13 34 255
-0.9792972 1.7630836 -3.1512496 119 104 101 255
-0.88122207 1.8229902 -4.270216 58 19 23 255
-0.9141186 1.7975616 -3.8437183 92 83 68 255
-0.971677 1.7674655 -3.1726117 17 16 28 255
-0.9314607 1.7798283 -3.455296 19 16 29 255
-0.9338821 1.7724242 -3.3549576 16 9 19 255
-0.9150884 1.780694 -3.5260406 14 11 23 255
-0.9129676 1.7696446 -3.3329468 108 94 86 255
-0.8836111 1.8044695 -3.7935038 92 84 66 255
-0.84957874 1.7941673 -3.802221 19 9 17 255
-0.8669386 1.7978618 -3.7169113 92 85 66 255
-0.922261 1.7540671 -2.96435 22 19 33 255
-0.91581154 1.764691 -3.072414 19 13 29 255
-0.8390225 1.8027086 -3.831795 14 9 13 255
-0.8350477 1.7994204 -3.7832823 90 83 65 255
-0.8044343 1.8170125 -4.0778213 14 6 19 255
-0.8468905 1.7918819 -3.6051638 96 85 73 255
-0.79754186 1.8311131 -4.2441015 90 84 63 255
-0.8215358 1.7968149 -3.7334073 99 87 74 255
-0.884346 1.7624738 -3.0403721 13 9 30 255
-0.7956617 1.8084528 -3.9391334 49 17 19 255
-0.7591462 1.8174093 -4.248012 13 6 19 255
-0.7532283 1.8364999 -4.4288054 13 10 21 255
-0.8257489 1.7805071 -3.398509 14 10 22 255
-0.86765 1.7603701 -2.934487 129 113 106 255
-0.80023545 1.7913955 -3.562592 18 10 24 255
-0.834387 1.7715962 -3.1388261 117 106 99 255
-0.798321 1.7702061 -3.1806033 19 14 32 255
-0.73885655 1.8101902 -3.885869 23 13 24 255
-0.72122115 1.7503226 -2.926364 23 18 31 255
-0.7257841 1.7602932 -2.9580984 86 13 25 255
-0.64910644 1.7691914 -3.389903 17 10 17 255
-1.8605084 1.0141478 -3.9121175 104 99 79 255
-1.8636212 1.3681747 -2.7772498 66 52 38 255
-1.7061001 1.7542695 -4.104008 68 62 35 255
-1.3524828 1.7979953 -3.754394 42 19 13 255
-1.3023733 1.7965189 -3.5374637 21 22 24 255
-1.1585389 1.7934848 -3.527334 60 20 24 255
-1.1585389 1.7934848 -3.527334 60 20 24 255
-1.1396817 1.8065398 -3.6508605 61 20 22 255
-1.1662 1.7903239 -3.3538718 13 14 34 255
-0.9948297 1.8299942 -4.2551155 8 5 11 255
-0.93754923 1.775616 -3.4161897 9 10 22 255
-0.91703016 1.7902765 -3.5744963 8 10 21 255
-1.0567192 1.7432766 -2.2454605 142 100 54 255
-0.7400245 1.8178471 -4.2738256 13 4 14 255
-0.74021643 1.8386531 -4.4724984 17 9 13 255
-0.6959248 1.8284466 -4.5048866 22 13 19 255
-0.796545 1.7550968 -2.9214644 132 115 102 255
-0.69782585 1.7672716 -3.2283225 103 85 79 255
-2.2096367 0.7304454 -3.3996925 249 254 251 255
-2.1672769 0.81502044 -3.2335455 254 254 254 255
-2.1029031 1.0038223 -3.5307674 65 63 51 255
-2.1593077 1.071152 -3.4745967 79 75 63 255
-2.136307 1.1531595 -3.326653 14 5 13 255
-2.1111739 1.2925938 -3.2580512 64 52 29 255
-1.4068369 1.748568 -2.7893598 58 52 55 255
-1.4068369 1.748568 -2.7893598 58 52 55 255
-1.2596304 1.8177339 -4.019522 79 64 47 255
-1.187367 1.8229138 -4.337688 82 66 55 255
-1.2088588 1.780746 -3.2256343 103 97 92 255
-1.1931199 1.7655568 -2.965164 125 110 100 255
-0.7904789 1.589717 -3.272206 103 94 89 255
-1.023653 1.8098984 -3.8615468 92 85 67 255
-0.96442235 1.8430706 -4.2688727 51 14 17 255
-1.0551038 1.7486268 -2.7044103 72 45 21 255
-0.9350746 1.75521 -2.9390042 129 115 110 255
-0.85744953 1.7992529 -3.7617974 61 14 21 255
-0.7695902 1.7535913 -2.9037304 13 10 31 255
-2.1140597 0.8224707 -3.893183 121 123 118 255
-2.0923946 1.2726495 -3.5666518 5 3 13 255
-1.5515575 1.8451073 -4.5905886 64 50 22 255
-1.3119228 1.5431335 -2.3035429 108 91 62 255
-0.84111416 1.8398631 -4.5532885 46 10 17 255
-0.8565754 1.8494773 -4.5648246 46 10 17 255
-0.8415721 1.8304179 -4.2293186 59 29 31 255
-0.769528 1.8306653 -4.44779 13 10 19 255
-2.0818605 1.7283863 -3.689823 68 63 39 255
-1.2673839 1.7858995 -3.4844935 24 18 27 255
-1.0282845 1.7622433 -3.0962021 16 19 41 255
-0.8629678 1.8105336 -4.0044565 11 10 20 255
-0.7863672 1.8255789 -4.330128 4 6 18 255
-0.7956201 1.7942415 -3.8588414 88 80 60 255
-2.1220238 0.84402174 -3.9358635 237 242 246 255
-2.0733933 1.6087059 -3.7172143 93 88 69 255
-1.6869931 1.7032212 -2.62035 19 0 9 255
-1.8647484 1.0838312 -3.931387 114 108 88 255
-1.5735942 1.118076 -5.0123687 121 121 95 255
-1.5216883 1.1056838 -4.9789863 121 121 95 255
-1.3902341 0.97501683 -1.7338531 156 134 121 255
-1.4236422 0.99846333 -1.6263331 121 95 65 255
-1.3658218 1.0084095 -1.8383943 115 95 61 255
-1.8104335 1.3051653 -3.4732301 84 67 51 255
-1.8388127 1.2962158 -3.1961813 98 82 83 255
-1.7794918 1.3788608 -3.1241958 10 9 19 255
-1.7794918 1.3788608 -3.1241958 10 9 19 255
-2.1903048 1.5906307 -3.8925898 67 62 50 255
-1.7726405 1.5191101 -2.5936227 24 4 13 255
-1.7805892 1.6721753 -2.8796825 52 1 13 255
-1.4038279 1.5382669 -1.7082071 150 122 93 255
-1.7388327 1.0725713 -2.6549268 83 1 20 255
-1.915388 0.7698952 -4.0872097 68 83 51 255
-1.8360314 1.2070131 -4.0255623 109 106 88 255
-1.8360314 1.2070131 -4.0255623 109 106 88 255
-2.1610987 1.0161424 -3.3601093 29 25 22 255
-1.5455681 1.8687083 -5.107118 31 27 11 255
-0.8675966 1.7649958 -2.9928513 138 124 114 255
-1.0412664 1.7549211 -2.9920282 16 19 39 255
-1.2105225 1.7687696 -3.1274607 119 111 113 255
-0.957182 1.7899014 -3.5643554 10 8 14 255
-0.77733713 1.7929513 -3.5893188 27 17 19 255
-0.3498321 1.3535539 -3.4083173 90 76 69 255
-0.9921275 1.7878067 -3.6253316 57 17 17 255
-0.98086977 1.7757164 -3.209582 74 9 22 255
-1.8071755 1.4335631 -3.0019803 70 66 54 255
2.7464323 -0.3279197 -4.059345 86 67 20 255
2.613044 0.43740422 -2.9501677 103 103 73 255
2.7821164 0.7776762 -4.2970753 119 113 106 255
2.76532 0.80422443 -4.5223637 103 113 83 255
2.6700819 0.74317545 -3.0416675 100 95 78 255
2.662982 0.9213415 -3.0135252 93 87 73 255
2.666754 1.0376707 -3.0932424 86 83 66 255
2.6555095 1.5517328 -3.0554187 79 73 60 255
2.6553009 1.5514117 -3.0550113 79 73 60 255
2.703322 1.8943603 -4.2433753 43 41 31 255
2.7431176 -0.2976541 -4.060792 168 147 92 255
3.185875 -0.15979813 -5.2692413 45 27 22 255
2.7304578 -0.26677793 -3.887359 101 87 52 255
2.704557 -0.28163594 -3.5365372 81 67 32 255
2.718145 -0.2017406 -4.09571 216 200 148 255
2.7299979 0.22974743 -3.9580467 98 86 64 255
3.2652788 0.45639995 -5.356817 77 55 44 255
3.1868093 0.5325135 -5.379117 26 13 14 255
2.709541 0.38987273 -3.586058 193 192 196 255
2.7968125 0.6225633 -4.378277 112 106 93 255
2.7972004 0.6457221 -4.4377174 122 121 108 255
2.7387052 0.6001114 -3.7552109 171 173 185 255
2.6845567 0.56922877 -3.165836 118 112 99 255
2.6871142 0.5847824 -3.2066815 155 149 143 255
2.700191 0.8121569 -4.9795694 127 100 110 255
2.7043586 0.7072853 -3.1709797 64 60 44 255
2.7900836 1.0647784 -4.3897758 98 95 80 255
2.5378797 0.8274815 -2.3738775 27 19 19 255
2.6628344 0.959987 -3.005149 114 107 92 255
2.660027 0.9995896 -2.9993405 120 112 100 255
2.622333 0.9761577 -2.726841 123 119 107 255
2.7807455 1.2339164 -4.3590155 132 124 116 255
2.7836854 1.2524275 -4.3972197 127 122 116 255
2.6252904 1.4189181 -4.644417 130 98 58 255
2.79745 1.4491345 -4.2022605 57 52 49 255
2.3280091 1.4199117 -4.9948792 52 31 24 255
2.6544883 1.4182546 -3.008395 86 78 68 255
1.491667 0.9127325 -1.7851297 104 92 73 255
2.112324 1.3073334 -2.2021139 82 68 34 255
2.7115939 1.7863321 -4.359842 57 50 34 255
2.6252403 1.6456604 -2.8067818 134 132 120 255
2.7183602 1.8629843 -4.412311 84 80 69 255
2.604984 1.7260156 -3.0849173 53 50 35 255
2.5889282 1.9228848 -5.028138 76 43 7 255
2.028085 1.9021862 -4.3271556 111 88 72 255
1.7357395 1.8218288 -2.8294744 100 83 68 255
1.7014967 1.8577307 -3.6702662 82 68 47 255
1.6858503 1.8921028 -4.517175 69 52 41 255
1.6415284 1.8380681 -3.2452488 89 73 59 255
1.5970937 1.8703737 -4.1025243 42 11 10 255
1.6017472 1.8909857 -4.32625 24 8 13 255
1.5307189 1.8276049 -3.0724416 86 70 59 255
1.5372946 1.8613095 -3.7606566 86 70 47 255
1.4926443 1.8130509 -2.709582 53 13 22 255
3.2750106 -0.22896056 -5.3285 98 71 51 255
3.22494 -0.07155517 -5.2829638 46 29 24 255
1.7082981 -0.005731415 -2.025113 91 84 78 255
2.6156294 0.37882233 -2.9427245 149 144 122 255
2.7579854 0.5683745 -4.054041 127 121 106 255
2.722087 0.55278325 -3.6337173 120 117 101 255
2.6550884 0.51429784 -2.983109 137 132 103 255
2.811947 0.79719007 -4.2622423 71 67 55 255
2.782336 0.96790934 -4.2747345 133 125 122 255
2.7811394 1.1762745 -4.3509197 113 109 96 255
2.812561 1.1755009 -4.2126784 59 57 50 255
2.6970518 1.27239 -4.626585 118 106 109 255
2.8018615 1.3716723 -4.199568 62 57 53 255
2.5067103 1.216642 -2.214651 66 66 57 255
2.500425 1.4432055 -4.842463 176 136 99 255
2.4583495 1.4368906 -4.8903327 185 145 114 255
1.5165784 0.8753069 -1.7286575 84 69 46 255
2.4983919 1.3062893 -2.5677578 99 81 46 255
1.5783741 0.9342496 -1.8691262 100 92 87 255
2.2844162 1.4207165 -4.5887656 121 95 61 255
2.2323184 1.3256557 -2.5645585 76 59 22 255
2.5919182 1.9182415 -4.958992 66 38 11 255
2.3426516 1.9195404 -4.9291635 63 40 21 255
1.9494066 1.8850541 -4.088336 31 20 19 255
1.9384472 1.8818092 -3.9467764 46 16 17 255
1.8986634 1.9071457 -4.760936 55 27 23 255
1.9257284 1.8795395 -3.7700727 99 83 67 255
1.9061543 1.8780864 -3.7521045 70 38 29 255
1.7129588 1.8564876 -3.7128122 22 13 14 255
1.7027812 1.8159906 -2.6042354 95 82 69 255
1.6848862 1.8138689 -2.626505 62 32 28 255
1.6668719 1.8690944 -3.8721406 77 63 43 255
1.6576526 1.8655195 -3.8132503 19 7 13 255
1.6576526 1.8655195 -3.8132503 19 7 13 255
1.6279193 1.859332 -3.6478548 19 7 7 255
1.5789406 1.8455497 -3.413971 81 68 50 255
1.5513988 1.7764343 -1.8771639 115 104 95 255
1.5570573 1.873415 -4.0745153 83 70 43 255
1.5678793 1.8919069 -4.3440504 77 60 42 255
1.5504972 1.8750827 -4.140212 77 63 38 255
1.549529 1.8224443 -2.820202 16 13 19 255
1.5309359 1.8406612 -3.4421122 67 49 42 255
1.5353013 1.8933758 -4.312458 76 60 38 255
1.5175011 1.8444637 -3.3240964 80 67 49 255
1.5035578 1.843077 -3.4172843 82 71 51 255
1.4987298 1.8204759 -2.8575034 92 81 64 255
1.5083 1.8648993 -3.848875 22 8 14 255
1.5060271 1.8723441 -4.031295 14 10 20 255
1.4900689 1.8152094 -2.7986517 87 77 59 255
1.4962562 1.8633754 -3.7341864 75 66 49 255
3.2883985 -0.20863104 -5.3946676 51 33 23 255
2.707377 -0.25931174 -3.7094204 244 227 174 255
2.711428 -0.2545931 -3.6491346 157 148 113 255
3.2562954 0.18863836 -5.3706713 83 53 43 255
1.6749213 0.1832701 -2.0314422 78 71 62 255
2.7245824 0.8814156 -4.6578584 11 9 14 255
2.7791286 0.91155165 -4.30789 120 117 108 255
2.7814038 0.92036104 -4.2789187 146 137 134 255
2.75844 0.99443585 -4.5132465 72 65 52 255
2.8023856 1.1283177 -4.231794 130 125 120 255
2.5728872 0.97247225 -2.5416615 106 107 98 255
2.805225 1.2621369 -4.5572314 130 121 120 255
2.7701116 1.3033669 -4.2445936 70 66 60 255
2.829439 1.3285843 -4.2062483 51 45 40 255
1.5771585 0.8050757 -1.8836098 126 117 108 255
2.8030918 1.3716778 -4.221417 118 114 109 255
2.6975195 1.2914815 -3.1420274 101 98 83 255
2.7761106 1.414088 -4.238047 69 66 61 255
2.764237 1.4389492 -4.2373676 68 66 61 255
2.7992673 1.5212587 -4.213117 109 103 97 255
2.77269 1.654813 -4.2253094 68 66 53 255
1.8817803 1.9045471 -4.77522 52 21 21 255
1.8473084 1.9018084 -4.7120047 16 13 17 255
1.8473084 1.9018084 -4.7120047 16 13 17 255
1.8392665 1.9053855 -4.690754 87 73 46 255
1.8125802 1.8838102 -4.244985 92 77 46 255
1.7887689 1.887976 -4.5815244 14 13 19 255
1.7226956 1.8990036 -4.644075 87 68 44 255
-0.17453827 0.66238624 -3.5648115 43 13 18 255
1.6963322 1.8651187 -3.870512 13 3 19 255
1.695651 1.8988203 -4.654787 95 77 51 255
1.698739 1.83868 -3.0834668 13 9 14 255
1.6943191 1.8807472 -4.11235 88 71 52 255
1.6688864 1.9022003 -4.668531 80 65 35 255
1.6384717 1.8533007 -3.579852 10 10 21 255
1.646852 1.8764453 -3.940815 62 49 25 255
1.6259681 1.8615272 -3.7014215 79 69 44 255
1.6021177 1.8438011 -3.4971693 24 16 20 255
1.6112928 1.84415 -3.2672071 80 70 45 255
1.600171 1.8940794 -4.599231 17 6 10 255
1.5950933 1.8614799 -3.5940926 19 9 18 255
1.5568433 1.8649123 -3.8351202 71 59 37 255
1.5578043 1.8705459 -3.8941076 10 5 13 255
1.5460163 1.8527781 -3.616705 88 75 53 255
1.5392112 1.842677 -3.4202223 8 6 17 255
1.5445085 1.8689015 -3.962125 13 6 17 255
1.553505 1.8895538 -4.3538404 14 8 18 255
1.544207 1.8876612 -4.4638505 37 10 17 255
-0.93678135 1.7762583 -3.354479 0 0 0 255
1.5042821 1.8881145 -4.262831 77 66 46 255
1.4682451 1.8333087 -3.403119 43 10 23 255
1.4895184 1.8667718 -3.8347068 75 64 44 255
1.4939473 1.8830426 -4.211817 78 70 46 255
3.2761452 -0.18536013 -5.3710694 121 84 57 255
3.2285883 -0.10056126 -5.347751 119 84 51 255
2.598023 0.10970842 -2.9381123 46 53 19 255
2.5065656 0.7017905 -2.2406597 64 87 55 255
2.7641444 1.2215995 -4.8364835 142 128 122 255
2.8883688 1.3756922 -4.191925 63 61 57 255
1.5045016 0.9625928 -1.480336 117 99 89 255
2.5808513 1.5617999 -2.4928482 59 59 44 255
1.9182056 1.8566674 -3.52959 54 25 21 255
1.7724341 1.8858443 -4.6484246 54 35 22 255
1.7213821 1.8708894 -4.039678 10 6 20 255
1.7256796 1.886936 -4.3534226 14 5 14 255
1.7249737 1.869379 -3.836978 50 16 19 255
1.6782873 1.8922325 -4.4694967 75 54 35 255
1.6690694 1.8531451 -3.4875944 47 14 21 255
1.6466061 1.8861121 -4.489016 16 9 16 255
1.687024 1.9171499 -4.656057 43 11 18 255
1.6494275 1.8792204 -4.211975 42 23 13 255
1.6338079 1.8889955 -4.339642 79 63 37 255
1.6340616 1.8897061 -4.3402357 79 63 37 255
1.6320865 1.8341458 -3.0791974 43 28 25 255
1.587255 1.8297993 -3.3513708 84 75 50 255
1.599322 1.8434563 -3.3239913 16 8 18 255
1.5958685 1.8633606 -3.7079518 86 75 52 255
1.5730677 1.8160473 -2.7587283 42 24 24 255
1.5437095 1.8319263 -3.247578 75 63 45 255
1.5549203 1.876327 -4.153471 72 58 40 255
1.523518 1.82951 -2.8750744 10 9 18 255
1.530138 1.8654258 -3.663621 83 68 47 255
1.5234159 1.8762641 -4.0775495 16 7 18 255
1.5289863 1.8892268 -4.2877245 43 10 21 255
1.4947162 1.8048232 -2.7091324 57 21 28 255
1.4964552 1.8358331 -3.3808591 43 6 18 255
1.4900128 1.8124993 -2.7766712 9 3 17 255
1.491755 1.8148187 -2.7444632 98 87 67 255
3.2315567 0.07418458 -5.305122 91 65 45 255
3.2151594 0.21975267 -5.3589606 81 52 41 255
2.677036 0.19035451 -3.5445588 136 129 106 255
2.6719127 0.344497 -3.5558226 140 136 111 255
2.6297772 0.30007243 -2.9595437 146 141 122 255
2.8535318 0.72880566 -4.2393627 0 0 0 255
0.36645454 0.43839785 3.547743 0 0 0 255
2.6922789 1.0662811 -4.5954013 10 7 13 255
2.7244196 1.4018619 -4.852931 7 3 13 255
2.7244196 1.4018619 -4.852931 7 3 13 255
1.5433241 0.8042631 -1.8533031 146 137 129 255
2.3373938 1.3932731 -4.543377 146 113 74 255
1.5427134 0.9420837 -1.8466433 139 128 119 255
2.5130136 1.5278311 -2.216147 50 50 42 255
2.622186 1.8549923 -3.2313006 18 19 23 255
2.0637922 1.907419 -4.7014093 90 67 52 255
1.519118 1.5186106 -1.7160753 157 144 139 255
1.8410414 1.9059404 -4.606825 18 14 22 255
1.7547978 1.883154 -4.141415 9 7 13 255
1.7059557 1.8176816 -2.7185261 74 58 49 255
1.6257435 1.8749291 -4.2375364 74 57 34 255
1.6028011 1.8894402 -4.353876 79 64 40 255
-2.4039366 2.5112855 -3.3566804 0 0 0 255
1.5130924 1.7346042 -1.8101528 134 122 117 255
1.527314 1.8219668 -3.3083766 77 69 50 255
1.5608608 1.8933979 -4.543145 72 58 31 255
1.4969813 1.8123829 -3.0991118 10 9 22 255
2.489248 0.70786536 -2.201238 13 8 13 255
2.543986 0.9410576 -2.5916672 16 10 13 255
1.5127213 0.8983362 -1.8195274 14 11 11 255
2.487202 1.2688727 -2.1824908 16 6 13 255
2.2174819 1.4203634 -2.029552 57 58 44 255
2.214287 1.5126791 -2.0235586 45 45 35 255
2.5787425 1.9069642 -4.2916923 62 55 43 255
1.7622919 1.9010675 -4.561908 85 68 38 255
1.7419628 1.8904616 -4.3224516 82 66 41 255
1.7014109 1.878306 -4.025564 10 6 19 255
1.7094502 1.9012386 -4.285764 42 9 18 255
1.6632683 1.8954812 -4.5715094 79 65 31 255
1.6549338 1.877 -3.7985559 49 17 23 255
1.5692116 1.8299965 -2.9922218 98 81 60 255
1.5442077 1.8361617 -3.39137 86 74 51 255
2.7079797 1.0595701 -4.6398363 14 8 18 255
2.5223413 0.92843735 -2.2433333 86 88 76 255
2.6570206 1.3752388 -4.5565796 13 9 17 255
2.653926 1.3740726 -4.5540996 13 9 17 255
2.3020802 1.9226769 -4.939468 28 13 13 255
1.6475571 1.8654089 -3.842489 68 57 32 255
1.6449562 1.8636901 -3.8420897 68 57 32 255
1.569629 1.8497515 -3.667908 49 11 19 255
3.2204318 -0.07526265 -5.334189 127 93 59 255
2.7622797 0.7987219 -4.8338885 110 123 97 255
2.5387008 0.75364345 -2.594118 22 16 18 255
2.4866178 0.735087 -2.2145364 14 8 11 255
2.3897417 1.5855665 -2.1412067 47 49 34 255
1.5258977 0.9542037 -1.8335474 130 121 112 255
2.7409425 1.7549065 -4.5178843 131 124 117 255
2.5559356 0.044528395 -2.9528103 120 142 100 255
2.7672417 0.5582589 -4.3948708 127 121 97 255
1.5881724 0.88221484 -1.9489406 141 131 122 255
2.6521435 0.14818445 -2.926697 61 69 39 255
2.3621747 1.4692609 -2.5945578 19 11 16 255
2.8135233 0.52376574 -3.7302256 119 113 95 255
2.4903514 0.8838824 -2.3699198 69 71 59 255
2.5329943 1.2742463 -2.5668988 17 7 14 255
2.667715 1.0665139 -3.0926037 80 74 58 255
2.718276 1.8441701 -4.402858 53 51 41 255
2.773522 1.6491941 -4.388078 63 58 49 255
1.7211535 1.8629798 -3.7907436 75 65 41 255
1.6209518 1.8717133 -3.8595767 40 32 18 255
2.539327 1.2072595 -2.5624244 20 13 19 255
1.636337 1.8010019 -2.4623978 95 82 66 255
2.8649955 0.8824081 -4.07165 2 2 11 255
-1.6404425 1.004598 -5.498613 163 171 174 255
-1.2956059 1.4322894 -5.8228903 112 96 64 255
-1.2956059 1.4322894 -5.8228903 112 96 64 255
-0.7810196 1.9268283 -6.69884 70 57 45 255
-0.80000323 1.9332881 -6.6080103 69 60 47 255
-0.8216805 1.9151994 -6.2180986 71 62 52 255
-0.3865201 1.8586987 -4.9504275 71 62 37 255
-0.34965825 1.8608503 -4.9400387 74 63 41 255
-0.11966929 1.8595248 -4.83032 30 9 16 255
-0.74646527 1.8647426 -4.9740043 70 69 47 255
-1.518647 1.7124121 -4.9259925 116 111 88 255
1.0560036 1.8757141 -4.544323 0 0 0 255
-0.38825825 1.8454776 -4.7743382 27 7 11 255
-0.4991885 1.8452085 -4.7111444 69 61 43 255
-0.66294634 1.8481079 -4.7264023 14 9 13 255
-0.78420043 1.8516347 -4.761855 82 71 53 255
-0.68663603 1.8479968 -4.7268906 71 66 46 255
0.030213747 1.8395648 -4.4914656 72 59 47 255
-0.43973592 1.8375396 -4.606801 71 61 43 255
-1.1210507 1.8442098 -4.7519507 86 79 52 255
-0.74283504 1.8443702 -4.6293087 76 70 49 255
0.083896525 1.8379545 -4.4054966 72 63 45 255
-0.502495 1.832426 -4.5107474 68 57 42 255
-0.5332285 1.8345579 -4.516745 65 58 38 255
0.11460711 1.8394128 -4.3370233 76 65 45 255
-0.5403412 1.8325031 -4.4832473 67 58 37 255
0.9795208 2.8413649 -5.2198367 32 7 10 255
0.9795208 2.8413649 -5.2198367 32 7 10 255
-0.82364297 1.8412182 -4.551934 27 7 11 255
-0.14120056 1.8356822 -4.377912 57 44 32 255
-0.5806707 1.8321942 -4.457643 77 67 52 255
-0.804698 1.8385104 -4.5018525 75 70 43 255
-1.1213158 1.8341249 -4.5712748 89 81 62 255
-0.6802414 1.8312414 -4.4322615 68 62 42 255
-0.8195707 1.8362079 -4.4660354 73 62 45 255
-0.7240522 1.831721 -4.414437 69 64 39 255
-0.7240522 1.831721 -4.414437 69 64 39 255
-1.0999242 1.8267787 -4.3998966 10 5 16 255
-0.08521418 1.818833 -4.1300015 60 52 32 255
-0.13483374 1.8108221 -4.038709 26 7 14 255
-0.09211899 1.812481 -4.022091 64 54 40 255
-0.029892426 1.8040421 -3.945827 66 59 47 255
-1.5458864 0.9715316 -6.048174 176 190 197 255
-1.1368127 1.2830858 -7.3872333 62 59 50 255
-1.6351496 0.92476386 -5.619202 112 143 139 255
-1.6236552 0.9551124 -5.56231 181 187 185 255
-1.49589 1.396437 -5.940916 152 139 112 255
-0.97897756 1.8798994 -5.549453 107 95 81 255
-0.18611874 1.8592407 -4.8852086 35 10 14 255
-1.5098662 1.7157598 -4.9909554 112 110 86 255
-0.08458009 1.8507088 -4.7655134 11 7 13 255
-0.27344254 1.849761 -4.7486024 69 59 42 255
0.7609484 1.807981 -3.0963879 0 0 0 255
-0.16304895 1.8438271 -4.5446615 76 66 47 255
-0.50170803 1.8367529 -4.5677605 11 7 13 255
-0.50170803 1.8367529 -4.5677605 11 7 13 255
-0.9852461 1.8438678 -4.671804 10 5 9 255
0.037045248 1.8340796 -4.3849707 32 7 13 255
0.18516615 1.8432795 -4.3516912 32 8 13 255
-0.7578539 1.8408439 -4.5742784 33 13 18 255
-0.7914158 1.8410084 -4.565532 8 6 10 255
-0.7486576 1.837881 -4.5474825 66 55 38 255
0.07702537 1.8326404 -4.328408 74 65 38 255
-0.7556152 1.8365961 -4.5239863 19 7 11 255
-0.70581865 1.8340812 -4.489717 17 6 13 255
-0.14221697 1.8326217 -4.3386817 10 4 10 255
-0.15975466 1.8330166 -4.3431034 10 9 11 255
-0.13789932 1.8306423 -4.3177166 64 54 37 255
-0.9041519 1.8368506 -4.500198 76 66 42 255
-0.7339504 1.8321054 -4.440997 71 65 42 255
-0.30527356 1.8300134 -4.3248134 65 51 37 255
-0.73987025 1.8314031 -4.4196024 10 3 13 255
0.124475345 1.8286426 -4.179313 53 40 31 255
0.09687666 1.8176594 -4.1689663 31 7 13 255
-0.7734053 1.8286015 -4.374093 63 44 37 255
-0.44437107 1.8212334 -4.2812786 27 7 18 255
-0.5173674 1.8269027 -4.2958355 27 11 14 255
0.07621714 1.8173898 -4.1198225 29 10 18 255
-0.84461725 1.8274847 -4.3333454 66 58 47 255
-0.84461725 1.8274847 -4.3333454 66 58 47 255
-0.8843974 1.8273513 -4.3419595 66 55 45 255
-0.01686011 1.8071408 -4.089505 57 49 38 255
-0.01686011 1.8071408 -4.089505 57 49 38 255
-0.67344135 1.8232082 -4.255218 63 52 33 255
-0.9995487 1.8275312 -4.332016 35 9 16 255
-0.47714865 1.8202488 -4.200002 63 57 34 255
-0.14179628 1.819923 -4.1133633 13 5 9 255
1.4248445 1.8561964 -3.678857 0 0 0 255
-1.0058881 1.8246105 -4.298098 37 7 14 255
-0.4166376 1.8197669 -4.14866 60 50 41 255
-0.20396961 1.8198776 -4.092578 64 51 42 255
-0.7990041 1.8178735 -4.1817775 67 62 43 255
-0.8258258 1.817566 -4.1860785 70 66 46 255
-0.118012354 1.8130805 -4.010164 62 51 41 255
-0.118012354 1.8130805 -4.010164 62 51 41 255
-0.0677417 1.8163689 -3.999709 67 58 34 255
-0.8115019 5.825707 -0.644863 0 0 0 255
-0.1567793 1.8129681 -3.9712737 32 7 19 255
1.5488611 1.8874758 -4.305473 0 0 0 255
1.5488611 1.8874758 -4.305473 0 0 0 255
-1.619648 1.0288401 -5.565738 66 64 44 255
-0.93964845 1.906995 -5.9514894 58 19 19 255
-0.93964845 1.906995 -5.9514894 58 19 19 255
-1.1010457 1.8415494 -4.7525616 35 32 27 255
-0.20147389 1.8411433 -4.5226007 65 57 38 255
-0.20147389 1.8411433 -4.5226007 65 57 38 255
-1.2123237 2.0303447 -4.9840283 67 64 52 255
-0.7985163 1.8368288 -4.4777985 8 7 14 255
0.19271076 1.8270988 -4.21001 67 60 41 255
0.19271076 1.8270988 -4.21001 67 60 41 255
-1.1004112 1.7629796 -3.003041 0 0 0 255
-0.45943037 1.8267322 -4.2777224 72 65 44 255
-0.83103967 1.8263489 -4.3162813 6 4 16 255
-0.9004384 1.826171 -4.3274293 7 5 16 255
-0.49927488 1.8240124 -4.2242246 11 5 11 255
-0.86985475 1.8250818 -4.307855 66 61 41 255
-0.7712203 1.8225096 -4.2509007 9 6 14 255
-0.7994837 1.8222347 -4.2612166 9 6 18 255
-0.84439933 1.8151875 -4.1358933 26 7 18 255
-0.0640696 1.8059855 -3.9408758 70 58 41 255
-0.0640696 1.8059855 -3.9408758 70 58 41 255
-1.0892098 1.3446758 -7.261236 13 6 18 255
-1.5942143 1.0312201 -5.67283 17 16 20 255
-1.6022177 1.3127811 -6.0342283 13 7 14 255
-1.4971628 1.6354185 -6.9733734 90 88 84 255
-0.19260104 1.8434365 -4.559335 29 8 16 255
-0.8588841 1.8367984 -4.5212603 65 61 33 255
-0.8588841 1.8367984 -4.5212603 65 61 33 255
-0.7321876 1.8337032 -4.4697156 7 6 17 255
-0.8391484 1.8374608 -4.471453 44 34 32 255
-0.4061904 1.76857 -3.01899 0 0 0 255
-0.82347816 1.8264103 -4.3181667 7 7 19 255
-0.10696493 1.823565 -4.115925 51 39 25 255
-0.89681417 1.8242944 -4.2979507 66 62 40 255
-0.9520355 1.8220927 -4.2715116 9 6 17 255
-0.12946355 1.8077683 -3.9743621 13 6 13 255
-0.95849264 1.8164725 -4.1610594 72 66 47 255
-1.5479931 1.3071047 -5.9753757 146 155 174 255
-0.7139431 1.8850524 -7.196404 77 75 53 255
-1.1436327 1.8986253 -5.980056 19 10 14 255
-0.7009398 1.8415135 -4.6033387 72 67 47 255
-0.24308404 1.8319824 -4.2799 33 6 17 255
-0.2977553 1.8271648 -4.191692 52 42 25 255
-0.93969876 1.8186604 -4.187108 37 19 19 255
-1.5088173 1.594537 -5.973659 6 5 13 255
-1.4897265 1.7111791 -6.1587305 158 167 176 255
-1.513973 1.793654 -5.946124 6 3 11 255
-1.5484529 1.7217106 -5.7581296 52 51 41 255
-0.9454293 1.8880432 -5.646283 67 54 44 255
-1.5853814 1.6792672 -5.383427 163 174 181 255
-0.64066964 1.8523593 -4.769543 73 68 40 255
-0.06983238 1.7987471 -3.9104536 40 9 23 255
-0.89703983 1.8217176 -4.2524595 37 5 17 255
-1.5815207 0.97592515 -4.469974 128 124 95 255
-0.17632893 1.85539 -4.7022038 33 11 14 255
-0.356453 1.9584236 -6.917117 33 24 19 255
-1.4304347 1.4691055 -6.9696283 62 55 46 255
0.72511286 1.7625631 -3.7711787 0 0 0 255
-1.0559207 1.8599894 -5.030686 92 74 63 255
-1.7898587 0.9973066 -4.944745 151 154 136 255
-1.6997433 -0.2665571 -4.911946 100 122 80 255
-0.94622386 1.8492669 -4.7501736 53 37 26 255
-3.1012373 3.4252977 -3.4900703 42 29 29 255
-1.5614303 -0.015503291 -3.9726555 163 162 149 255
-2.150299 1.2976358 -3.5093951 49 35 18 255
-2.324366 0.90734637 -3.3843107 25 31 47 255
-2.1295257 0.9885088 -3.4545681 44 43 41 255
1.476998 1.8680521 -3.9115436 0 0 0 255
1.3778702 1.8446002 -3.558837 0 0 0 255
-1.1552029 1.7911277 -3.6656606 91 79 66 255
-1.3211913 1.7790501 -3.4124644 26 18 22 255
-1.3627731 1.7763956 -3.3127537 79 66 63 255
-1.2048955 1.7830195 -3.4164267 104 87 86 255
-1.4230876 1.7716291 -3.185764 86 75 73 255
-1.3994821 1.7682157 -3.1698768 58 41 38 255
-1.4045604 1.7685744 -3.1362734 44 26 33 255
-1.2913088 1.7722383 -3.1541445 66 46 51 255
-1.2879511 1.7713101 -3.0828018 41 23 29 255
-1.4916848 1.7501469 -2.836656 38 19 22 255
-1.3607736 1.7573018 -2.9432483 93 79 76 255
-1.4463271 1.7509338 -2.8545578 78 64 59 255
-1.9715146 -0.96774995 -2.7382011 68 87 66 255
-0.91671365 1.7629198 -3.2840621 76 24 37 255
-1.208152 1.7604657 -3.0198705 121 101 107 255
-1.1497403 1.7552675 -2.9887698 44 38 53 255
-1.817117 0.69272923 -2.525072 132 143 155 255
-0.84475094 1.7702017 -3.2529254 121 99 101 255
-0.6200257 1.7649 -3.348939 103 85 71 255
-0.92618704 1.756076 -2.9816427 124 96 95 255
-0.9494598 1.7496142 -2.925889 98 50 52 255
-1.2959187 1.6206474 -2.573437 127 127 139 255
-1.6931369 0.97396636 -5.0996256 113 109 79 255
-1.5655111 1.5364403 -5.020131 94 94 83 255
-0.95660204 1.8460262 -4.6828704 43 17 19 255
-2.1777573 1.0083876 -4.0188828 80 77 43 255
-2.1615105 0.45757526 -3.6622548 238 243 247 255
-0.74320966 1.8224856 -4.24605 78 70 50 255
-2.1325672 -0.80119765 -3.722372 219 229 230 255
-0.75228494 1.8210487 -4.2168565 50 13 17 255
-0.74296474 1.820167 -4.1806145 77 73 50 255
-0.8039072 1.8151822 -4.1316285 43 9 11 255
-0.75102377 1.8164026 -4.1123753 43 19 18 255
-0.74123937 1.8164755 -4.10644 78 66 51 255
-2.236096 0.834729 -3.2827756 30 41 54 255
-1.3165159 1.7913126 -3.6609335 52 39 25 255
-1.2924362 1.7870859 -3.5825233 40 28 22 255
-1.3238764 1.7831317 -3.4858568 75 58 53 255
-1.3238764 1.7831317 -3.4858568 75 58 53 255
-1.3574845 1.7773341 -3.406493 25 18 23 255
-1.41293 1.775281 -3.3078938 64 52 51 255
-1.2604115 1.7801858 -3.3485577 100 80 79 255
-1.2510906 1.7795529 -3.3131022 31 20 24 255
-1.2255057 1.7792089 -3.2967224 100 90 81 255
-1.3905193 1.7689811 -3.1561844 88 76 78 255
-1.5212673 1.7607036 -3.0520332 54 33 28 255
-1.4222656 1.757619 -3.020608 44 23 28 255
-1.1100525 1.7654912 -3.2524066 76 19 29 255
-1.9473578 0.8003035 -2.6581485 99 103 88 255
-1.3513937 1.7628659 -3.0156786 17 13 22 255
-1.328523 1.7664467 -3.0317874 81 63 63 255
-0.80939305 1.773515 -3.4315865 26 17 24 255
-1.0202931 1.7622575 -3.249664 113 104 99 255
-0.82915324 1.7744834 -3.407013 27 18 26 255
-1.094413 1.7569019 -3.1727355 121 110 108 255
-1.0849283 1.7645485 -3.1457286 112 98 92 255
-1.0849283 1.7645485 -3.1457286 112 98 92 255
-1.1760467 1.7581279 -3.058431 116 96 102 255
-1.248081 1.7591758 -2.9727976 66 21 37 255
-0.91604656 1.7633824 -3.1968477 47 22 33 255
-0.7317181 1.7712893 -3.3309674 74 53 49 255
-1.2398534 1.7529026 -2.8421013 90 71 73 255
-0.8889349 1.7624965 -3.0848927 121 100 99 255
-1.0679406 1.7441247 -2.9018507 61 46 60 255
-1.0753466 1.7443124 -2.8680115 46 32 55 255
-0.82859427 1.7594377 -3.0715334 137 124 116 255
-0.6307136 1.7648368 -3.2331884 46 23 29 255
-1.5572094 1.7150925 -5.101635 131 130 136 255
-1.7016964 0.971497 -5.044201 112 106 80 255
-1.1210507 1.8442098 -4.7519507 106 92 73 255
-1.6163145 1.8224566 -4.2374516 32 21 8 255
-0.7300606 1.824246 -4.281315 79 73 52 255
-2.5548136 1.3582405 4.9310455 87 61 19 255
-2.1293306 0.8702891 -3.5887802 89 94 108 255
-0.823088 1.8175181 -4.1681547 50 35 26 255
-0.7239061 1.8212162 -4.196665 77 72 53 255
-0.7931332 1.8142034 -4.089937 94 79 61 255
-1.3516127 1.7886611 -3.5767148 80 69 64 255
-1.3753674 1.7796352 -3.3658683 34 14 19 255
-1.2913917 1.9470325 -3.3986545 87 69 65 255
-2.2241793 -0.12263667 -2.8783092 163 167 171 255
-1.4165277 1.7654749 -3.0925038 29 18 21 255
-1.2401285 1.7742513 -3.2091656 101 87 86 255
-1.0854117 1.7631824 -3.2658737 114 97 97 255
-1.2425232 1.761973 -3.0892503 54 24 29 255
-1.2563173 1.7613739 -2.991361 63 21 34 255
-0.97641784 1.7575604 -3.0982647 120 111 101 255
-0.97641784 1.7575604 -3.0982647 120 111 101 255
-0.8170266 1.7702823 -3.1961408 119 102 94 255
-0.97636324 1.7544593 -3.0417376 123 112 102 255
-0.90368605 1.7563668 -3.079727 34 21 37 255
-0.9280885 1.7522204 -3.0295079 90 21 31 255
-1.4731015 0.87750465 -2.5736556 112 116 117 255
-0.99885744 1.7503786 -2.9102356 143 127 122 255
-0.99885744 1.7503786 -2.9102356 143 127 122 255
-1.5552394 -0.06498381 -2.6002517 67 60 41 255
-1.0163146 1.7465928 -2.8315938 69 55 69 255
-1.0795928 1.855661 -4.9815435 96 91 72 255
-1.7282883 -0.286415 -4.760771 93 119 78 255
-1.5716561 1.0428709 -4.2675624 98 97 68 255
-1.1137682 1.8176227 -4.272577 10 8 13 255
-2.1338382 0.8794378 -3.5154555 91 88 94 255
-2.1845622 0.93462205 -3.3901234 81 80 75 255
-2.1939936 0.8217045 -3.330766 251 254 254 255
-0.7564234 1.8145456 -4.0555267 87 77 58 255
-0.7564234 1.8145456 -4.0555267 87 77 58 255
-2.1465497 1.1218408 -3.2985134 74 72 61 255
-1.117771 1.7673308 -3.4884918 110 101 90 255
-1.117771 1.7673308 -3.4884918 110 101 90 255
-1.1304804 1.7854943 -3.4508903 14 13 27 255
-0.557062 1.7990419 -3.7567782 102 95 76 255
-1.2061046 1.7671173 -3.2106047 78 43 49 255
-1.2759598 1.7727696 -3.1500812 34 23 31 255
-1.1217206 1.7702068 -3.2704682 110 104 101 255
-1.2038889 1.7750043 -3.1847239 76 35 42 255
-0.91034687 1.7626985 -3.2647977 74 21 31 255
-0.8674337 1.7654139 -3.300074 40 23 25 255
-0.57862616 1.7876899 -3.536095 19 14 19 255
-0.9150167 1.7726898 -3.2315464 116 103 96 255
-1.1560395 1.7613454 -3.0028772 33 24 43 255
-0.93492514 1.761475 -3.186352 123 104 100 255
-0.6742098 1.7781026 -3.4055662 114 97 84 255
-0.8991268 1.7617706 -3.1022642 122 107 107 255
-0.94792926 1.7545605 -3.050181 93 32 38 255
-0.8313003 1.769059 -3.1359797 121 110 107 255
-0.9158185 1.7520579 -3.0584354 138 122 114 255
-0.97518486 1.7490753 -2.939232 106 42 49 255
-0.9456062 1.7512647 -2.949177 143 127 122 255
-1.549327 1.1137749 -4.979027 71 66 50 255
-1.7415048 -0.028008008 -4.7310576 22 24 19 255
-0.938638 1.826293 -4.3282514 88 83 60 255
-0.8673133 1.8259772 -4.287653 50 14 19 255
-1.1665688 1.8084037 -4.138641 13 8 14 255
-0.7328887 1.8201575 -4.177608 86 81 62 255
-0.8238291 1.8139307 -4.0922823 84 76 58 255
-1.8147256 1.4741082 -3.5854058 9 7 13 255
-0.74439186 1.8171521 -4.127729 82 76 58 255
-0.77298045 1.8153688 -4.0819917 84 76 58 255
-0.7284126 1.812933 -4.0624676 17 10 11 255
-0.9225068 1.8114823 -3.862246 14 11 20 255
-1.0131418 1.7940093 -3.6417627 66 19 24 255
-1.0778048 1.7832503 -3.4552991 31 25 33 255
-1.9704704 -1.309667 -3.0005815 157 160 171 255
-0.6119841 1.7949417 -3.7049253 95 88 62 255
-0.5417298 1.7999122 -3.7533698 63 29 27 255
-1.2422137 1.774605 -3.1687825 113 103 104 255
-1.1327138 1.770939 -3.232113 78 40 50 255
-2.0082068 -1.1084614 -2.7556002 53 76 51 255
-0.7452885 1.7857218 -3.4529524 100 88 76 255
-0.7151355 1.7842671 -3.4692395 27 17 21 255
-1.029265 1.754606 -3.1698823 113 103 98 255
-1.2605516 1.7654167 -2.856499 43 28 42 255
-0.66163176 1.7776018 -3.3913834 17 11 20 255
-0.92027426 1.7625841 -3.1171854 21 18 33 255
-0.85517853 1.7629399 -3.0763083 87 32 39 255
-0.5314982 1.7818072 -3.3481228 61 19 19 255
-0.4575749 1.7854089 -3.4219599 87 71 63 255
-1.5193424 1.0702649 -5.0605803 85 84 69 255
-1.0943464 1.8549814 -5.0605745 63 31 26 255
-1.1265478 1.8336805 -4.894753 45 19 20 255
-1.5549068 1.0697168 -4.576007 118 114 86 255
-1.593004 1.7400415 -4.356069 99 97 70 255
-1.6033974 1.0592753 -4.313067 103 100 74 255
-0.8449526 1.8290496 -4.409644 47 27 19 255
-1.813763 1.7937284 -3.8497484 35 24 13 255
-0.8530941 1.8257132 -4.2559366 88 86 66 255
-0.94968414 1.8301307 -4.1810517 43 24 14 255
12.852947 12.298749 -4.801024 0 0 0 255
-0.89148176 1.8140216 -4.1839156 43 28 20 255
-0.8498189 1.8192871 -4.1979156 81 75 55 255
-1.044298 1.8125648 -4.021538 92 85 66 255
-2.1923692 -0.13445227 -3.4671729 117 118 103 255
-1.1230822 1.7887826 -3.6980326 93 86 70 255
-1.0754123 1.8106085 -3.668544 61 31 32 255
-1.9801874 -0.860836 -2.960924 204 213 229 255
-0.9303883 1.7931478 -3.4243698 106 93 88 255
-1.1569335 1.7745379 -3.1131234 24 25 45 255
-1.2222277 1.7445124 -3.0481973 106 96 97 255
-0.94739026 1.7679882 -3.2235014 82 22 37 255
-1.059973 1.7545255 -2.987166 26 21 43 255
-1.0156063 1.7548308 -2.9972875 34 28 43 255
-1.691186 -0.2173187 -4.8518925 160 158 134 255
-1.3007301 1.8622398 -4.8980975 31 23 10 255
1.5940999 1.8669796 -3.6375666 0 0 0 255
-1.008837 1.8091949 -3.8395066 95 86 69 255
-0.81153715 1.8091444 -3.9365833 52 20 23 255
-1.2148464 1.8006784 -3.6148236 57 42 34 255
-0.96065366 1.749417 -2.9930053 141 123 117 255
-1.706785 0.112231754 -4.876953 10 10 16 255
-0.93796486 1.8258594 -4.107033 59 19 26 255
-0.93796486 1.8258594 -4.107033 59 19 26 255
-0.981241 1.8182652 -4.0747213 90 84 66 255
-0.81058145 1.8059907 -3.8545747 89 82 65 255
-2.0602763 0.78123903 -2.861343 143 147 149 255
1.6515725 1.8895015 -4.510432 0 0 0 255
-0.564801 1.7912873 -3.505011 32 14 17 255
-1.2763747 1.8704907 -4.9621677 38 25 13 255
-1.7073449 -0.095850684 -4.8155966 30 31 24 255
-0.872231 1.7860477 -3.5520356 90 78 66 255
-2.00397 -1.3633517 -2.9847991 240 244 253 255
-1.8474637 1.6446217 -3.8753552 121 116 96 255
-2.1455276 0.9539314 -3.508882 0 0 0 255
-2.130839 -0.08012854 -3.729449 119 115 93 255
-1.5642701 1.7392422 -5.095007 4 5 8 255
-2.129035 0.95809126 -3.442647 14 13 14 255
-1.1927522 1.7557144 -2.976399 132 119 118 255
-1.7663726 0.015459485 -2.6282172 88 115 102 255
-1.5597754 1.8613849 -4.938021 65 52 24 255
-0.9768574 1.7736117 -3.085382 129 118 113 255
-0.7328888 1.8205265 -4.178576 77 73 57 255
-0.57295763 1.7892786 -3.562206 112 96 71 255
-2.1296384 1.1560055 -3.381847 17 8 14 255
-0.5850194 1.7983549 -3.7510018 21 17 23 255
-0.8519898 1.7717098 -3.302715 75 52 55 255
-1.56561 -0.067973524 -2.626651 131 132 140 255
-1.0256442 1.768818 -3.085643 27 28 41 255
-2.08409 1.2633299 -3.5731401 7 5 11 255
-2.1225727 1.2402676 -3.4869251 81 79 64 255
-2.2414923 0.7487483 -2.880396 245 250 253 255
-1.4495269 1.5572288 -2.665146 124 123 129 255
-2.1616046 1.1290126 -3.2911758 74 72 61 255
-2.1249187 -0.8518034 -3.7240524 128 128 122 255
-1.6119347 -0.40281704 -5.4082465 43 45 26 255
-2.14491 -0.11533603 -3.5996068 103 98 76 255
-2.1328418 0.009369117 -3.7454975 96 91 69 255
-1.5655357 0.20899701 -5.897442 45 46 44 255
-1.5580384 0.23064402 -5.9636793 75 78 79 255
-2.231527 -0.009242345 -3.1489036 106 103 82 255
-2.231527 -0.009242345 -3.1489036 106 103 82 255
-1.5983878 0.23665465 -5.677515 42 45 35 255
-1.6036791 0.34532678 -5.384387 55 57 46 255
-1.6262733 0.4629922 -5.4799447 60 62 59 255
-1.6055713 0.46266282 -5.3867607 66 63 51 255
-1.620584 0.5073783 -5.4214754 71 72 66 255
-2.0899787 0.61625075 -3.8975065 116 119 112 255
-2.3379543 0.5448194 -2.8929045 198 207 222 255
-2.3093755 0.5603513 -2.8926094 179 188 200 255
-2.2991638 0.58633184 -2.921241 163 172 177 255
-2.3039126 0.6151809 -2.910654 127 131 137 255
-2.086576 0.7351558 -3.5469894 123 124 129 255
-2.1103384 0.78379464 -3.508272 109 118 145 255
-2.1512764 0.8535888 -3.3211277 71 70 66 255
-1.5802878 0.9942201 -5.3277903 145 155 151 255
-2.217424 0.8925695 -3.2992642 69 67 61 255
-1.8554114 0.940054 -2.6527305 114 103 103 255
-1.8908736 0.9501503 -2.6633832 87 34 30 255
-1.3141503 0.85617644 -2.0733237 125 106 89 255
-1.3026327 0.9365344 -2.2291088 114 95 64 255
-1.2913396 0.9160963 -2.0435748 217 204 185 255
-1.2759017 0.92328 -2.0935924 182 158 126 255
-1.433967 1.4067925 -5.724767 139 126 88 255
-1.7159688 1.3183547 -3.3236454 45 33 22 255
-1.6606889 1.6806707 -5.5369186 165 174 182 255
-1.566576 1.7439697 -5.051683 89 90 74 255
-1.1376202 1.8402507 -4.615108 50 35 24 255
-1.3006446 1.8064412 -3.8708308 87 70 63 255
-0.9846503 1.8611475 -5.0177593 66 49 43 255
-1.4335603 1.7658733 -3.0405498 40 24 31 255
-1.2404668 1.8149183 -3.9091597 58 40 30 255
-1.0269054 1.8382593 -4.5971975 65 45 39 255
-1.2166456 1.8005831 -3.642824 68 51 52 255
-1.1376885 1.8197513 -3.974125 38 22 27 255
-1.1931798 1.8000357 -3.6412518 41 24 27 255
-0.9800276 1.8333287 -4.457351 50 32 26 255
-1.0960954 1.8019472 -3.8692694 62 27 25 255
-1.2791709 1.7810568 -3.167353 51 34 38 255
-1.1210955 1.8078343 -3.7758534 41 26 26 255
-1.309094 1.756462 -2.8315837 70 42 45 255
-2.1919427 -1.0862683 -3.3047993 191 200 217 255
-1.5530246 -0.31407118 -5.7291226 22 19 13 255
-1.5799528 -0.32445714 -5.5488977 27 19 13 255
-1.5765854 -0.3059631 -5.6760697 65 58 43 255
-1.5913736 -0.31356207 -5.5527854 77 71 45 255
-2.2165766 -0.46877 -3.2436397 218 222 223 255
-1.6026735 -0.1654776 -5.49565 58 57 39 255
-1.5689124 -0.05391768 -5.8439527 52 41 19 255
-1.5777683 0.11024749 -5.814081 73 63 46 255
-1.5667963 0.1642268 -5.8978815 66 69 67 255
-1.556324 0.19708392 -5.97923 65 65 65 255
-2.2309813 -0.020227384 -3.1394923 130 128 108 255
-2.1489334 0.14062487 -3.68835 131 126 108 255
-1.4100379 0.05870757 -1.4426074 192 178 176 255
-1.5589694 0.37063074 -6.0020385 21 39 24 255
-1.6089963 0.39229453 -5.3829584 52 51 35 255
-1.5593908 0.5618645 -5.751619 55 58 44 255
-2.150334 0.44335327 -3.6737628 121 121 101 255
-2.1223376 0.59570986 -3.9292674 101 104 103 255
-1.4997953 0.7866368 -5.967634 19 19 21 255
-1.5339998 0.96513706 -5.9051213 142 166 161 255
-2.1514716 0.7983546 -3.303376 79 91 108 255
-1.5432701 1.002379 -5.833418 11 6 9 255
-2.1559978 0.93736076 -3.4616044 78 79 74 255
-1.6684012 0.9884227 -4.2500477 138 138 104 255
-1.5010384 1.0638716 -5.052983 95 95 71 255
-1.3139894 0.80158865 -2.2115874 157 137 125 255
-1.3265167 0.8208404 -2.1961663 22 18 14 255
-1.6539935 1.2461733 -5.4982147 140 146 159 255
-1.6069787 1.3704171 -5.8663063 103 96 70 255
-1.2698276 0.91003835 -2.0161104 140 121 99 255
-1.2931681 0.9407397 -2.0490444 137 118 100 255
-1.308954 1.0481168 -2.2173264 156 138 118 255
-1.7313026 1.3047577 -3.5661848 77 69 49 255
-1.7924925 1.3170043 -3.4982748 70 53 34 255
-1.7695498 1.2979685 -3.120988 31 26 32 255
-1.8330351 1.3408685 -2.8148007 13 8 11 255
-1.6609589 1.6999516 -5.5454865 181 189 195 255
-1.6414183 1.7046893 -5.5530305 89 84 69 255
-1.3755714 1.6365123 -4.927387 64 52 23 255
-1.5633869 1.7560705 -5.067941 144 154 148 255
-1.5706829 1.772139 -5.064322 51 43 25 255
-1.5632613 1.8415248 -5.1095476 67 57 33 255
-1.658024 1.8096164 -4.3334827 16 6 6 255
-1.1054306 1.8428298 -4.682246 114 95 86 255
-1.4133478 1.7770408 -3.2783866 76 66 65 255
-1.2733703 1.8104483 -3.877586 100 83 77 255
-1.44233 1.7657956 -3.0862541 92 82 76 255
-1.4223629 1.7691641 -3.0880547 37 20 24 255
-1.4452654 1.7729939 -3.0283356 92 70 74 255
-0.95913464 1.8578258 -4.962911 85 77 64 255
-1.142144 1.8137594 -4.0866323 31 16 19 255
-1.2425965 1.8102167 -3.7744167 31 18 22 255
-1.0120517 1.8444668 -4.606852 29 19 19 255
-1.2289804 1.7933298 -3.4914968 45 28 31 255
-1.1071272 1.8072817 -3.889835 91 79 66 255
-1.1676718 1.7999547 -3.638829 102 87 79 255
-1.0715867 1.8168919 -3.942711 88 75 66 255
-1.896624 -1.0034056 -2.6926913 80 108 90 255
-1.5292295 -0.29238352 -5.917421 54 53 33 255
-1.5919541 -0.31721246 -5.510539 80 72 52 255
-1.580272 -0.23613174 -5.4156885 60 58 37 255
-1.5105718 -0.16528049 -6.1364837 40 35 23 255
-1.5771825 -0.2037554 -5.4106565 63 60 41 255
-1.5715903 -0.0026343053 -5.826123 129 97 74 255
-2.1769695 -0.1730143 -3.4646091 142 139 129 255
-1.5545101 0.30440772 -6.0147448 53 54 50 255
-1.6053865 0.30642632 -5.6626735 26 29 19 255
-1.5352728 0.34663326 -6.087911 63 62 46 255
-1.3760515 0.08894034 -1.7267 216 200 202 255
-1.6061214 0.4208821 -5.384205 72 71 52 255
-1.556493 0.4966606 -5.9624243 61 66 63 255
-1.5362873 0.5218394 -6.084625 23 22 18 255
-1.5419695 0.519243 -6.046942 17 19 13 255
-1.6068091 0.5224923 -5.405444 79 79 76 255
-1.6195707 0.5143642 -5.363698 28 25 14 255
-1.5125352 0.5743362 -6.0523343 62 63 57 255
-1.5186698 0.88173944 -5.8910084 98 137 125 255
-2.118675 0.802006 -3.4991806 86 107 147 255
-1.6486384 0.86827064 -4.355036 133 132 101 255
-1.558237 0.7893742 -2.585418 39 39 33 255
-1.3040612 0.8130872 -2.2365525 67 60 41 255
-2.5633755 1.197155 -3.4306805 13 9 10 255
-1.2847683 0.8608952 -2.0698915 214 194 176 255
-1.287104 0.8612569 -2.0692513 214 194 176 255
-1.3934171 0.9589792 -1.6986581 182 165 152 255
-1.9296156 1.3232605 -3.4422383 97 84 67 255
-1.7995217 1.3182738 -3.4701018 71 54 32 255
-1.8162777 1.2679492 -2.9437008 13 14 19 255
-1.8580266 1.3640378 -2.8180263 89 84 71 255
-1.8580266 1.3640378 -2.8180263 89 84 71 255
-1.5420029 1.7465315 -5.0315423 150 163 152 255
-1.6832409 1.8006918 -4.2233167 24 17 13 255
-1.3941278 1.7827353 -3.3880274 72 66 67 255
-1.0530087 1.8306509 -4.469046 96 77 67 255
-1.346892 1.7774724 -3.1293797 83 61 65 255
-1.346892 1.7774724 -3.1293797 83 61 65 255
-0.93061423 1.8476468 -4.792428 101 94 73 255
-1.2000886 1.798995 -3.6271894 30 19 24 255
-1.378223 1.7672004 -2.8721573 52 30 40 255
-1.378223 1.7672004 -2.8721573 52 30 40 255
-1.518564 -0.21461996 -6.1249337 61 55 37 255
-1.5173931 -0.17204478 -6.1217546 67 61 46 255
-1.6123925 0.13289124 -5.471197 76 72 62 255
-1.5677279 0.1769188 -5.8827066 33 40 29 255
-1.5878674 0.27179763 -5.7556167 89 90 76 255
-1.6230328 0.2996744 -5.4658875 67 68 63 255
-1.5511093 0.49641874 -5.999687 57 65 61 255
-1.5543731 0.5139277 -5.956966 13 23 10 255
-1.5539763 0.5139558 -5.9566917 13 23 10 255
-1.5602975 0.5129801 -5.9179235 17 21 14 255
-1.5623466 0.5130082 -5.9196696 17 21 14 255
-1.5606748 0.5086554 -5.846854 29 30 21 255
-1.5925941 0.49660602 -5.676378 17 19 19 255
-1.5533912 0.5363285 -5.888156 73 81 83 255
-1.6099011 0.5087211 -5.5047665 64 67 70 255
-1.590937 0.9350163 -5.737856 51 64 43 255
-1.8377287 0.84447443 -3.9960892 78 87 57 255
-1.5347857 1.008197 -5.90308 84 89 66 255
-2.1710215 0.8507687 -3.4128096 72 77 84 255
-1.6305007 1.0087574 -5.552285 171 179 183 255
-1.6544617 0.76488066 -2.6053426 118 130 148 255
-2.0527022 0.8134292 -2.671331 69 68 43 255
-1.707944 0.78618234 -2.6228337 145 155 172 255
-1.672055 1.0736887 -5.2414618 120 118 93 255
-9.933918 7.982836 -10.896047 103 91 81 255
-2.084778 1.033941 -3.490737 13 6 13 255
-2.234185 1.0444826 -3.3946428 19 8 13 255
-1.5841502 1.0482069 -4.2572675 112 101 74 255
-1.2957526 0.8895929 -2.0319717 127 110 95 255
-1.7280045 1.3036548 -3.3076177 97 82 89 255
-1.4101186 1.2511917 -1.6698222 183 161 152 255
