ply
format ascii 1.0
comment Created in Blender version 4.0.1
element vertex 1082
property float x
property float y
property float z
property uchar red
property uchar green
property uchar blue
property uchar alpha
end_header
2.1431413 -0.7439186 2.5888617 140 140 129 255
0.31353784 1.7361887 -3.1079164 72 53 47 255
2.0922315 -0.41702846 2.9766095 88 84 71 255
2.0455472 0.62893534 3.4962497 121 110 90 255
1.0263878 1.8578839 -5.6355095 37 8 16 255
-0.8441567 1.0585982 2.4018817 134 100 70 255
2.3971632 -0.8428888 -3.9675152 81 70 53 255
2.211437 1.6237948 3.1254203 0 0 0 255
1.285097 0.81260455 -0.23377346 19 10 11 255
2.153791 -0.6796409 2.4847362 55 52 41 255
1.2979585 1.7906407 -4.36126 81 67 39 255
-2.489948 0.5882225 2.6114862 133 116 91 255
1.2509512 1.711891 -1.3906642 50 33 13 255
2.1651735 -0.9254578 2.0961952 43 34 22 255
-2.7850673 0.12762432 3.497779 39 34 22 255
2.109554 -0.8177285 2.9935665 113 109 73 255
2.1728542 -0.6679327 2.292783 35 37 22 255
-2.8557534 -1.4968203 4.2570076 112 98 64 255
-0.5567283 1.4593319 4.3970213 34 4 10 255
0.20470043 1.7197099 -2.8687599 78 67 50 255
-2.7802682 0.3772021 3.8283005 184 179 160 255
-2.3295407 0.73490345 2.5915833 118 99 75 255
2.3872964 -0.4910635 -3.5646484 69 57 19 255
1.3715016 1.8170278 -5.1118503 107 89 60 255
0.750062 1.7580098 -3.6073377 93 86 66 255
-1.578809 0.4127611 0.67254674 137 123 108 255
-2.756181 1.2802454 4.9650626 111 92 70 255
2.1363819 -0.9353537 2.7393057 74 76 52 255
0.1080486 1.0398818 -2.9531167 14 7 19 255
-2.468991 -0.96905226 5.5506587 59 52 37 255
2.1721313 -0.46253863 2.2211227 70 70 61 255
0.33940843 1.7283136 -2.6691847 96 83 61 255
-1.1057534 -1.0530316 5.76736 41 40 23 255
2.1736782 -0.6306455 2.2344763 73 65 47 255
-1.856907 -0.32903147 5.7033663 98 93 67 255
-1.33112 1.4412271 4.2286406 147 126 108 255
-2.6681118 0.3758937 3.6291502 206 207 193 255
-2.589953 -0.30079985 3.0287163 147 133 118 255
0.10099964 1.4918828 3.9902709 58 44 29 255
0.6241494 1.773008 -4.604724 11 9 19 255
1.5214286 1.8391756 -5.680058 104 83 57 255
-2.0378203 -0.643801 5.6413264 4 5 10 255
-2.955206 -0.7408366 3.9397144 95 84 51 255
2.133781 -0.7095449 2.6991878 143 129 111 255
1.3903948 1.7754222 -3.565534 41 16 18 255
-2.658095 -0.13014899 5.607515 5 3 13 255
2.3940032 0.9093403 -3.1546724 80 76 66 255
2.0509982 -0.09048811 1.7890348 122 121 90 255
2.0729694 1.847703 -5.736165 84 50 1 255
-2.7923315 0.14245906 5.114495 40 47 20 255
2.1558216 -0.38957876 2.1561222 47 34 20 255
-0.41218367 1.4661965 4.629813 23 21 24 255
-2.817463 0.11001198 4.867781 121 102 65 255
-2.7276788 1.1007019 4.716052 109 93 63 255
-2.5831304 1.3280587 2.6770382 226 213 207 255
2.1230197 -0.7116381 2.8195014 112 96 67 255
1.9577754 1.2854556 -2.693765 30 22 14 255
-1.4983943 1.4593656 3.325841 189 167 160 255
-0.07580767 -1.6904435 3.3388445 132 112 58 255
0.13772383 1.7778251 -4.494402 9 4 13 255
2.1814847 0.40748787 1.7974799 72 85 53 255
0.46138144 1.7458245 -3.5428314 11 10 19 255
-0.41425732 1.5341281 2.445897 64 59 49 255
-0.11627338 1.5607082 1.9593635 77 62 46 255
1.0460955 1.7600399 -3.0946674 78 66 46 255
2.149766 -0.72586995 2.4795425 43 43 30 255
-0.3012247 1.5529096 2.354323 73 60 52 255
-1.1009061 1.5703969 1.2270043 120 98 83 255
2.2015085 -1.2557291 2.1079094 32 23 13 255
2.4065878 1.6279181 -3.2628088 40 41 24 255
0.4908469 1.5710843 2.4060986 19 10 19 255
2.1592379 -0.37914515 2.1866698 35 26 16 255
0.4501072 1.5717065 2.3372946 71 63 47 255
0.097056806 1.5533025 2.2354329 33 7 17 255
-2.2277246 1.4913526 2.9666882 120 81 40 255
2.2999012 1.1949688 -4.98107 133 119 121 255
0.31542948 1.562025 2.267956 38 6 19 255
2.1298747 -0.68791723 2.7518044 67 68 54 255
-0.07235556 1.5551766 2.2165384 69 54 39 255
2.1881182 -1.2238071 2.1570985 19 14 9 255
1.2517322 1.8150092 -5.064324 83 66 40 255
0.022275815 1.5563549 2.2278242 66 58 49 255
2.1693587 0.41629118 2.2569664 133 128 130 255
2.4054785 0.6251998 -3.1443849 121 115 98 255
0.66230446 1.7647898 -3.8054006 18 7 14 255
2.3984644 0.890467 -3.1980462 124 121 107 255
-1.2379248 1.4945126 2.9851656 53 43 46 255
-2.3967614 1.4577725 2.8416562 132 85 43 255
0.95272547 1.7639447 -3.624053 83 70 44 255
0.10060334 1.5614552 2.09331 43 4 14 255
0.77974916 1.5850838 2.1814678 43 13 16 255
2.0568328 -0.05457692 3.41203 42 47 19 255
-0.7310925 1.5484955 1.9993336 65 13 22 255
1.2555778 1.8075352 -4.785442 52 11 17 255
2.179032 -0.510907 2.2165995 41 40 34 255
-0.3340059 1.5590528 1.9953555 59 39 30 255
2.179558 -1.082851 2.29354 42 40 26 255
2.3978786 0.96300095 -3.2636366 113 111 95 255
0.33722025 1.583519 2.0862734 37 6 10 255
2.3865833 0.46800664 -4.633955 167 162 146 255
-0.20362322 1.563554 1.9723239 91 75 60 255
-1.6027968 1.4587551 3.2732232 69 69 83 255
0.4450476 1.8040274 -5.2818847 71 55 39 255
-0.26638284 1.5611724 1.9587634 87 75 52 255
1.1171612 1.7706755 -3.541815 87 78 53 255
2.060846 0.36503643 3.406765 147 141 120 255
-0.26674137 1.5637956 1.965163 87 75 52 255
-2.4945393 0.87237686 5.40623 74 20 32 255
2.1405725 -0.7781893 2.5637584 93 92 74 255
0.38329208 1.5827291 2.0106492 79 66 47 255
2.2871785 0.97398275 -2.6911314 81 82 76 255
1.4189161 1.8387903 -5.9799876 99 81 58 255
1.0708961 1.7453531 -2.8794434 43 2 11 255
2.0903175 -1.0446157 3.1046154 35 26 13 255
0.18713674 1.5698942 1.9512188 51 17 18 255
-1.3646858 1.4917848 2.9979625 112 31 34 255
0.18713674 1.5698942 1.9512188 51 17 18 255
0.30326492 1.6812781 -0.94152606 114 84 66 255
1.4068669 1.7633903 -3.255028 26 14 18 255
2.4011295 0.89910406 -3.2736802 111 109 93 255
-2.7230883 0.043642256 3.1784682 96 93 78 255
0.6844678 1.7418442 -3.1317885 59 19 18 255
-0.60650104 1.5573429 1.7570133 82 59 47 255
2.0977738 -0.82086414 3.0667267 63 52 19 255
-0.12882113 1.5690327 1.802386 54 9 19 255
2.1365752 -0.68654984 2.7112715 101 92 87 255
-0.05787277 1.5688459 1.7999558 46 10 16 255
2.0739589 -0.76944274 3.1177316 43 35 17 255
0.5555439 1.5923468 1.824688 80 68 52 255
2.0956748 -0.84773254 3.0881321 66 53 22 255
-0.7711513 1.557052 1.6530755 107 91 72 255
2.1926992 -1.2117676 2.189065 84 79 50 255
2.3094957 1.4533645 4.2789087 77 2 16 255
-0.057556253 1.5735415 1.6758935 17 16 20 255
-0.1815088 1.5766988 1.6656512 46 7 13 255
2.3772326 -1.0035242 -4.1979814 72 60 13 255
0.7214151 1.749113 -3.277128 89 75 42 255
2.416485 1.2024195 -4.4593897 87 84 75 255
2.1422932 -0.69550365 2.6495216 139 129 110 255
0.014068874 1.7347238 -3.3855546 6 4 14 255
-0.39515767 1.5715382 1.6181966 86 74 57 255
2.1021342 -0.8612617 3.063603 65 54 29 255
-1.9373163 -0.36258626 -5.4806676 33 30 19 255
2.1781318 -0.83707035 2.2231307 55 54 30 255
0.192305 1.7650781 -4.142781 89 78 49 255
-0.081599474 1.5752856 1.6188915 33 14 19 255
1.384588 -0.5108998 -1.1034884 196 184 174 255
2.132915 -0.84001845 2.7215457 84 91 74 255
0.038808316 1.5778769 1.6256986 51 10 16 255
-0.55416113 1.5690396 1.499068 30 28 37 255
0.23585826 1.5870411 1.626375 92 76 62 255
0.6083688 1.7419986 -3.1258268 81 69 47 255
1.3856803 1.8389674 -5.787716 114 87 63 255
2.1324432 -0.781418 2.7422693 124 129 108 255
-0.61809784 1.563407 1.5038675 66 9 18 255
0.6166263 1.6968908 -0.98990333 68 44 7 255
1.306992 1.8135473 -5.152635 57 7 13 255
2.326917 0.9825129 -4.7592154 13 7 16 255
2.079916 -0.44570845 3.0984468 122 104 51 255
-0.21281254 1.5741826 1.5437969 60 10 14 255
1.1192179 1.7067968 -1.0813136 89 65 34 255
2.289804 1.2076155 -2.3403633 14 10 16 255
2.7527168 0.063198514 4.4425983 9 13 24 255
-1.2644159 1.7476716 -4.3913655 0 0 0 255
0.5905136 1.611347 1.6449835 80 68 46 255
2.4811308 -1.0921152 6.0584965 69 60 43 255
0.042602777 1.7855315 -4.928268 38 11 11 255
-0.36759892 1.5754256 1.4718311 98 81 66 255
1.3065085 -0.631696 0.5221278 156 140 124 255
2.1022434 -0.34387264 2.758436 144 129 78 255
-0.44936 1.575386 1.4449606 67 10 23 255
2.1785781 -1.5798513 1.8428122 116 109 90 255
0.011855378 1.580041 1.464717 88 75 57 255
0.09196085 1.7913022 -5.020797 78 64 31 255
-1.5524238 -0.38935813 0.5035138 107 93 74 255
-0.19397871 1.5821767 1.35805 99 84 66 255
-0.81267464 1.5385242 2.0540516 50 47 46 255
-0.03902814 1.5896608 1.301167 29 17 29 255
0.12866549 1.7379322 -3.4815063 73 64 35 255
2.2477393 1.2102783 5.6575227 13 3 13 255
2.1590452 -0.3915257 2.2618089 81 75 62 255
-1.2139193 1.5064977 2.5372424 29 29 42 255
2.1116087 -0.40945703 2.7655554 125 120 129 255
0.5483484 1.7635664 -3.8605452 13 10 14 255
0.7706452 1.824928 -5.3904605 72 55 34 255
-0.25749984 1.5443879 2.391068 60 46 41 255
2.092399 -1.3089315 3.0553224 55 43 25 255
2.395662 1.2701417 -3.1238284 115 109 97 255
-0.06340146 -1.4578519 3.3426673 150 141 109 255
-0.25672472 1.5435317 2.3905551 60 46 41 255
-2.7475257 -0.19009258 1.446936 116 102 76 255
-1.7375342 1.4599806 3.514569 157 131 132 255
0.4244223 1.7416508 -3.2055125 81 66 51 255
-0.0795354 1.5537329 2.2610254 18 11 23 255
1.2919018 1.7687986 -3.0560052 11 10 20 255
2.1134095 -0.21770023 3.1793454 107 123 79 255
0.85529065 1.5818713 2.3595867 78 67 47 255
-2.5126467 1.4129586 3.7310483 119 76 34 255
1.2337329 1.8032093 -4.908734 88 73 43 255
2.1375275 -0.8280252 2.6589775 81 89 67 255
0.003654577 1.558102 2.152088 76 65 52 255
2.1803832 0.63524556 1.6600281 43 61 33 255
-0.48488876 1.5460125 2.006246 57 9 19 255
0.010220538 1.5634784 2.0543902 84 71 54 255
2.3517165 1.7788067 -3.38353 13 13 18 255
1.0217003 1.8337123 -5.824724 25 4 8 255
1.2242386 1.784472 -3.93397 86 76 50 255
2.0867832 0.17303449 2.862262 116 109 80 255
-0.115647875 1.4727445 4.8261337 19 13 20 255
-0.10392916 1.5601009 2.026701 45 33 30 255
0.39457718 1.5802627 2.065687 70 55 38 255
2.5629528 -0.56999856 0.9007361 220 209 187 255
2.1407413 -0.3191706 2.4114413 70 62 28 255
-0.09524352 1.5625243 1.951394 52 10 19 255
-1.5317535 0.07039927 -0.25861445 167 152 146 255
2.0880792 -0.9192352 3.1096616 40 27 13 255
1.1122274 1.7817224 -3.7128088 85 74 57 255
0.16824311 1.574293 1.9608308 86 71 52 255
-0.00480357 1.5717688 1.810888 21 14 26 255
-1.2791653 1.4965767 2.9479687 157 131 116 255
0.59579176 1.5916196 1.8303968 82 69 50 255
-0.6355012 1.5845371 1.1106997 17 16 29 255
0.07748146 1.7400188 -3.5032573 13 8 18 255
0.8277592 1.5127796 4.063483 17 10 20 255
-0.36099222 1.7414862 -3.9171813 74 64 45 255
1.0542953 1.8412822 -5.784447 65 47 28 255
0.57254046 1.5928698 1.8122171 32 27 23 255
0.4763024 1.6024908 1.784852 52 9 18 255
2.1714509 -1.236948 2.3899045 30 22 5 255
2.1492257 -0.31298336 2.2986324 50 44 25 255
1.0302485 1.7422396 -2.7655606 89 78 58 255
-0.06353277 1.5722523 1.6592944 27 23 28 255
2.286888 0.8180096 -2.3592343 9 4 10 255
2.1199853 -0.7817859 2.8533962 61 57 37 255
0.21981612 1.5879345 1.6719837 69 55 44 255
2.0796342 -0.5542155 3.1011596 88 74 30 255
0.9360744 1.5246397 3.7831137 87 70 52 255
0.5112977 1.5949092 1.6716485 85 70 52 255
0.90988004 1.6050857 1.7048211 42 19 22 255
2.4231942 0.6670926 -4.5578127 96 89 79 255
2.0267496 -0.39365417 2.863087 46 52 62 255
-0.33973265 -1.8238429 5.626217 130 121 101 255
2.174069 -0.559831 2.2374723 71 71 58 255
1.174347 1.8182744 -5.6476865 38 19 18 255
-0.016234057 1.5760429 1.5972208 96 82 69 255
1.1645062 1.762314 -3.5254297 10 7 18 255
2.1728911 -0.981176 2.3399317 93 88 55 255
0.90907514 1.7439517 -2.9671812 13 9 14 255
0.18276182 1.5835539 1.6033875 90 73 57 255
2.2572284 -0.2034145 1.3454304 9 13 10 255
0.1836049 1.5849823 1.6070365 90 73 57 255
2.1126945 -0.25774488 3.205273 95 112 71 255
2.7635443 0.04906618 4.4328876 71 78 71 255
2.4868104 0.5356663 -3.594659 112 103 92 255
-0.39445543 1.5714641 1.5276946 75 20 25 255
2.3903885 -0.41812587 -4.1713815 138 116 43 255
-2.4095852 1.342794 2.8885396 136 113 80 255
2.1658227 -0.47143415 2.2943325 22 26 27 255
0.40924832 1.5952481 1.6193428 77 64 37 255
-0.53557444 1.5793756 1.3342236 98 79 64 255
-0.015007303 1.7512069 -3.9601903 53 46 29 255
2.0927167 -0.5700385 3.1520267 35 28 13 255
0.027603505 1.5786549 1.5219371 53 2 14 255
0.52909374 1.6752766 -0.5224757 61 35 6 255
2.1548808 -0.35254505 2.2024367 87 80 54 255
2.394177 0.9686789 -4.826617 11 9 14 255
2.1766133 0.33926097 1.8994719 101 92 64 255
2.1045907 -0.8229049 3.0969234 107 90 40 255
0.78542536 1.6073314 1.4998952 88 72 57 255
-1.7506104 1.4490541 4.010088 128 94 85 255
-0.12634073 1.5819496 1.4006349 26 21 35 255
2.1113741 -0.21967337 3.1348145 145 170 132 255
0.16811292 1.5874745 1.4257907 94 78 63 255
2.099021 -0.82609034 3.074038 61 46 18 255
2.0901475 -0.37690687 2.8402822 178 177 185 255
0.6360723 1.8249841 -5.539303 54 41 31 255
0.16813722 1.5905209 1.4291247 94 78 63 255
0.14725453 1.587344 1.4207289 46 6 17 255
2.398405 1.1790429 -3.2497113 82 72 64 255
1.1421342 -0.25865334 6.242408 90 81 52 255
2.1777728 -0.80194825 2.1545696 64 54 23 255
2.6418746 0.6629711 -3.3362947 0 1 11 255
-0.051749747 1.584424 1.3759937 10 9 23 255
2.3999715 -0.28768796 -4.086275 137 126 97 255
-1.7121004 0.5379395 0.23979019 154 134 128 255
-0.10521457 1.5848895 1.3265554 91 72 58 255
2.175484 -1.0145291 2.3284512 79 76 46 255
0.2197281 1.5946674 1.351197 42 13 18 255
1.3670694 1.7292835 -2.3936155 49 21 20 255
1.7326992 1.1694082 5.595987 129 106 106 255
1.2561728 1.8100744 -4.7416883 82 68 43 255
2.2567499 1.3895423 6.0905695 117 88 77 255
2.3764498 0.30099183 -3.6281295 130 123 102 255
2.174592 -0.9057039 2.1249483 94 77 33 255
0.6726102 1.7649727 -3.907176 55 10 19 255
0.7534296 1.5572859 3.0011933 65 55 35 255
0.8208792 1.558395 2.8582091 35 16 18 255
0.9483939 -1.2080861 -7.0159097 150 146 121 255
2.0426533 0.36378095 3.9005942 83 90 58 255
-0.5454881 1.5414896 2.099424 59 8 17 255
2.0971467 -0.014827823 3.0835156 84 74 49 255
1.0509187 1.5871161 2.0747626 19 13 19 255
2.0952373 -0.85238713 3.0965724 89 74 31 255
0.6075667 1.5856527 2.0025394 47 10 18 255
0.66993773 1.730572 -2.6706123 13 7 20 255
1.2912356 1.8137249 -4.8133755 83 66 40 255
0.6714673 1.5898998 1.9076065 21 19 22 255
2.4819922 0.8465538 -3.3202786 74 75 63 255
-1.5536706 -0.32004756 0.5075264 143 127 120 255
0.70983785 1.5989937 1.7837045 74 60 41 255
2.174934 -1.2686207 2.2223573 80 64 31 255
0.041968446 1.5763795 1.6614431 55 10 19 255
0.19811891 1.584924 1.6595291 55 9 19 255
-1.5530268 -0.16008158 0.14745797 0 0 0 255
2.2474818 0.5150338 1.4297204 50 58 33 255
1.0562729 1.472821 5.0566463 126 85 31 255
-0.3140325 1.5738348 1.5316751 100 84 69 255
-0.3273641 -1.0553752 5.81712 81 73 62 255
0.4600536 1.5980285 1.5189002 16 16 23 255
1.0460583 1.7777476 -3.8420877 35 20 22 255
0.5483484 1.7635664 -3.8605452 13 10 14 255
2.1745207 0.7869274 2.0843449 108 99 86 255
0.029266845 1.5818284 1.4482087 53 10 20 255
1.2071822 1.802349 -4.450782 82 68 40 255
2.1927748 -1.1070803 2.146506 46 43 18 255
0.81078184 1.6045319 1.5278876 52 9 21 255
2.1013513 -1.1289794 3.0834863 74 64 32 255
-0.04934905 1.5840831 1.4268274 43 33 29 255
-1.0111104 1.563195 1.4282751 119 99 83 255
2.429704 0.6014156 -4.5645194 121 117 108 255
0.29468635 1.5957413 1.4368987 88 71 54 255
2.404273 0.75376564 -3.1472037 119 112 93 255
-1.4012561 1.5535567 1.4732387 68 30 37 255
0.20902981 1.7772845 -4.4545627 37 6 11 255
0.21249294 1.4632008 4.6280837 77 66 49 255
0.29456294 1.595527 1.4367353 88 71 54 255
1.2521095 1.8134171 -4.9729643 46 5 14 255
0.64273584 1.6039141 1.4518082 78 66 46 255
2.3997276 1.0211182 -3.1946394 87 83 66 255
2.109934 -0.8725074 3.0237894 43 41 29 255
0.7423374 1.4888257 4.3857617 87 74 55 255
-0.17456451 1.5831597 1.3436707 30 24 26 255
0.10621289 1.5892587 1.3673201 23 19 31 255
2.3947861 0.45354766 -3.1470718 30 26 18 255
-0.21758045 1.7250508 -3.4181373 40 8 19 255
-0.9684311 1.5577735 1.6187317 23 26 40 255
0.9316581 1.8503964 -5.987164 28 2 13 255
0.24544078 1.5944359 1.3821915 86 69 51 255
2.3334215 0.7524573 -4.69589 108 124 97 255
2.109583 -1.2494136 3.084848 84 68 41 255
-0.16285092 1.7299553 -3.5043187 34 5 17 255
0.5051585 1.6027728 1.391731 26 19 35 255
2.227737 0.60318816 2.1273565 32 23 19 255
1.4146724 -0.35569006 -1.4789048 147 130 115 255
0.93105894 1.5646831 2.65412 29 19 24 255
-0.9155665 1.556943 1.6337827 117 94 78 255
2.5129945 1.439465 5.647428 112 66 16 255
0.69236296 1.7398244 -2.979216 83 67 54 255
0.16511741 1.7644101 -4.0562105 66 38 34 255
0.8468682 1.5863209 2.1984909 37 16 23 255
-0.068815775 1.5656478 2.0679557 52 9 19 255
0.63278 1.703985 -1.2998171 101 73 35 255
0.891298 1.7200255 -1.6938852 64 39 9 255
2.1890342 -1.1464111 2.2077303 49 47 27 255
0.9327302 1.5893897 2.1748023 42 13 18 255
1.264141 0.7755491 -0.21038337 115 87 65 255
2.1548746 -0.8792804 2.5356581 110 109 87 255
0.15458483 1.5707194 2.0159352 18 17 22 255
2.1845193 -0.9587111 2.1805785 67 63 40 255
0.42681825 1.4753662 4.504617 76 63 43 255
0.25996646 1.5748254 1.8864678 17 21 25 255
-0.52381635 1.5510739 1.7799959 69 17 22 255
0.4004155 1.5947083 1.7016925 49 7 17 255
-0.431619 1.5679945 1.6758826 97 86 64 255
0.40491134 1.6087074 1.719242 49 7 17 255
2.1504838 -0.9578992 2.5829566 134 133 104 255
-0.00028112106 1.5738658 1.6215988 58 8 19 255
0.20420638 1.7911268 -4.9372334 13 10 16 255
1.078294 1.749527 -2.851893 91 76 53 255
2.1936214 0.06620105 1.907052 70 77 43 255
0.4633919 1.5964947 1.5488881 84 70 53 255
0.5848738 1.7505503 -3.4906662 83 75 52 255
0.63758546 1.6011723 1.5542022 90 73 55 255
2.6360333 -0.80673105 6.1011453 9 7 11 255
-0.40776435 1.5775104 1.4187621 104 87 72 255
1.3141443 1.3877757 -0.9555847 52 35 16 255
-0.5243666 1.5344608 1.7335709 66 14 19 255
-0.15410654 1.5808421 1.3990465 58 13 19 255
2.1784146 -0.82092345 2.3476279 71 71 45 255
2.4172661 0.98220706 -4.5432215 115 112 102 255
2.1266026 -0.8600683 2.8747365 23 25 22 255
-0.42317292 1.7439497 -4.0419006 13 5 18 255
-0.17424087 1.5816761 1.3751626 94 77 62 255
2.403766 0.59549165 -3.1691418 136 128 119 255
0.52170336 1.7621319 -3.7956522 51 18 23 255
4.767463 0.32393792 2.8628974 113 100 75 255
0.32491913 1.5943961 1.4114615 82 67 51 255
0.836493 1.6128371 1.46791 51 9 22 255
-0.54009914 1.5684319 1.5875237 54 14 20 255
2.5800645 -0.79363376 5.799052 67 74 49 255
0.61306345 1.6013578 1.4324441 20 18 29 255
1.9864417 -1.9100283 4.9887614 124 111 99 255
2.633247 0.40090314 5.4546328 18 10 19 255
0.6923335 1.7700752 -4.0968547 50 10 19 255
-2.5977273 1.4455146 3.8910446 116 80 39 255
2.3987784 1.0033746 -3.2418988 81 75 60 255
2.16171 -0.9147404 2.4583442 78 77 57 255
0.6676605 1.5979625 1.5226341 21 19 30 255
2.1616309 -1.0841006 2.5992491 98 92 66 255
0.046569318 1.5831064 1.4434872 54 8 17 255
2.8016613 0.008698231 -5.5371923 67 43 33 255
0.43669292 1.6024386 1.4422973 90 75 54 255
-0.12689959 1.5710447 1.6992978 47 7 14 255
0.160985 1.5853158 1.3658109 55 5 21 255
2.6650646 0.41184947 4.7322702 25 13 22 255
-8.356936 5.646415 -4.3513384 0 0 0 255
-0.94914967 1.5166719 2.4420054 43 10 19 255
2.1707253 -0.84618163 2.3932736 112 111 87 255
1.9301054 1.8586969 -6.2802615 113 70 22 255
0.49128866 1.5823752 2.1474624 47 6 16 255
-1.3869861 1.4724605 3.295828 52 46 61 255
-0.9561424 6.8991184 11.810863 72 22 28 255
0.86359024 1.5574819 2.802012 50 26 27 255
0.54755735 1.7020155 -1.4222605 124 96 67 255
2.6775074 -0.70074826 5.8055043 16 6 13 255
2.1425638 -0.34636602 2.174519 82 76 65 255
2.4770615 -0.7893073 5.7865725 71 78 53 255
0.80286276 1.6065865 1.6726104 81 70 47 255
2.1163425 -0.96549183 3.0139756 49 35 19 255
0.23036656 1.5913773 1.4565033 90 74 59 255
1.3169111 1.8117237 -4.906459 8 7 17 255
2.624694 -0.7351649 4.722041 47 23 21 255
0.27659228 1.758091 -3.906607 37 5 17 255
2.0654254 0.30231428 3.5667605 73 88 50 255
2.5619843 0.58707947 6.0508313 130 115 121 255
-0.1942797 1.5739622 1.8809987 66 44 30 255
2.8071399 0.43671206 -6.2820663 63 44 33 255
3.0780976 -0.75103414 4.4005766 55 62 35 255
2.1524973 -1.0857602 2.7022412 78 77 55 255
0.80970144 1.5719615 2.6623561 19 13 19 255
2.4087458 0.52921176 -3.1543908 136 130 124 255
-1.4925412 1.527378 2.049877 92 71 66 255
1.028085 1.847489 -6.0297356 31 4 11 255
1.6696512 0.9413442 5.7781844 179 138 107 255
1.2578604 1.7429678 -2.7604847 17 10 24 255
2.298346 -1.4631107 1.3317924 19 14 10 255
2.176925 1.1673121 5.62343 166 142 138 255
2.1593401 -1.2727246 2.4489985 104 81 38 255
-2.7472022 1.3858768 4.9694214 58 39 21 255
2.1409721 -1.2277521 2.5508783 43 41 27 255
-1.3002899 -0.5959442 5.75524 121 114 84 255
2.1097279 -0.81795025 2.9935408 118 112 77 255
2.46993 1.4591767 4.34561 86 46 21 255
0.27429014 1.7386713 -3.2652876 79 68 46 255
-1.2520133 -0.31356755 5.770643 35 41 28 255
-1.2253543 -0.4337619 5.7680864 85 83 52 255
2.3544629 1.7510129 -3.271313 13 10 13 255
1.4325532 1.8464268 -6.161593 51 20 24 255
-1.2202048 -0.24817258 5.7761283 43 46 35 255
1.369574 1.7893319 -3.9679918 9 7 16 255
-1.2174653 -0.57529736 5.7645855 69 70 51 255
2.1365695 -0.599229 2.6443858 80 79 85 255
0.17039342 1.7198933 -2.8613327 20 9 18 255
-1.0783045 -0.49772456 5.792032 71 74 52 255
2.1543274 -0.6680939 2.473835 62 53 40 255
-0.9908756 -0.2085646 5.8102703 52 51 32 255
2.1507442 0.5673777 1.4638764 20 13 10 255
-0.99183047 -0.2065164 5.806127 52 51 32 255
-0.5546131 1.5791548 1.3029203 98 79 63 255
1.0267905 1.5180221 3.987408 41 26 33 255
0.9159838 1.7202557 -1.6537226 109 77 46 255
-2.2941558 0.4359671 5.6168985 63 52 24 255
1.3673742 1.8437462 -6.262204 96 74 47 255
-1.8480757 -0.4414039 5.695479 121 113 83 255
1.4212009 1.7651933 -3.4126093 19 9 13 255
2.1540425 -0.377581 2.1412346 72 66 51 255
0.42784518 1.8181461 -5.6294184 23 3 8 255
-1.2677082 -0.4920728 5.7618804 79 81 61 255
2.170549 -0.5665148 2.1289604 102 83 41 255
0.41943318 1.4898194 4.158466 69 58 41 255
-1.2481755 -0.5228258 5.7631636 43 45 31 255
2.1225858 -0.9509618 2.8163335 103 103 69 255
-1.2152191 -0.38422123 5.7709703 84 87 63 255
0.34239712 1.7417175 -3.3316967 43 13 19 255
-1.1054105 -1.03418 5.765968 58 60 45 255
1.0369353 1.8230891 -5.2666163 88 73 38 255
2.0751436 0.5680513 3.3584688 102 96 84 255
0.41053513 1.7595689 -3.8391147 39 9 17 255
-1.075915 -0.3853968 5.7861915 41 43 29 255
1.5891978 -0.3243781 1.0208994 34 39 28 255
-0.29505366 1.7130966 -2.8552406 55 9 19 255
2.1860385 -1.257145 2.2129755 76 60 30 255
-0.93644655 -0.7186479 5.825016 76 86 55 255
-1.8789092 1.4796401 3.2360084 141 95 28 255
2.095191 -0.79372805 3.0897489 107 87 31 255
-2.4063258 -0.9180108 5.6091123 57 52 37 255
-1.8243542 -1.0444275 5.6847816 30 27 22 255
-1.861385 -0.45102486 5.6928825 68 63 34 255
-0.37890074 1.578543 1.3823658 88 75 61 255
0.9960445 1.7854649 -4.1226482 54 40 26 255
-1.8374352 -0.42474335 5.696932 110 106 70 255
2.1344538 -0.70165884 2.6905634 85 76 62 255
-1.2642819 -0.5233498 5.76107 70 73 54 255
2.165776 -0.2115911 2.502744 193 215 214 255
0.6686575 1.757295 -3.5862784 96 84 54 255
-1.2383503 -0.5968488 5.7603927 51 52 40 255
2.1283326 -0.701253 2.7776597 50 44 39 255
2.4043546 0.6043758 -3.1435564 119 117 101 255
-1.2048941 -0.39467356 5.7720075 39 42 25 255
1.4311268 -0.34903854 -1.8735383 133 121 111 255
2.2984552 0.6386753 -2.370443 67 93 59 255
2.7072861 0.41810453 4.505274 66 53 52 255
2.3122745 0.6721341 -2.7115626 72 89 57 255
-1.1565205 -0.1625677 5.7827344 34 39 31 255
-1.0620908 0.21126121 5.8284655 170 195 171 255
-1.0469761 -0.41254747 5.793418 83 86 64 255
2.1399233 -0.61811286 2.6044464 126 121 102 255
-1.0493498 -0.4902294 5.7887325 71 71 51 255
2.0681505 -0.05817954 1.821811 121 114 87 255
-0.9825212 -0.24214152 5.8069944 89 86 67 255
2.1750658 -0.5524006 2.2146192 50 43 37 255
1.0723088 1.7636257 -3.2152877 89 77 52 255
-0.7286919 0.24821307 5.8242044 127 145 112 255
0.5778679 1.7532324 -3.5569484 61 27 22 255
-2.413858 -0.7994757 5.6148567 35 30 19 255
-1.1660327 1.5626187 1.4006255 122 103 89 255
-2.4556277 -0.4687508 5.6113224 34 25 17 255
0.79594326 1.711478 -1.2780108 64 38 11 255
1.0996684 1.7602124 -3.202826 84 69 49 255
1.24892 1.716188 -1.326904 50 30 16 255
2.0998392 -0.54133445 3.0772352 79 65 32 255
1.2738333 0.7655916 -0.22927848 66 52 42 255
2.1267428 -0.6854633 2.7822723 80 77 67 255
-1.7024468 -0.28532848 5.7203326 90 89 68 255
2.3053205 1.0805122 -4.670217 21 10 13 255
1.5623326 1.8537529 -6.2203355 97 75 54 255
-1.2684966 -0.5949473 5.7565465 44 47 33 255
2.3112202 0.04614451 1.9479779 97 86 68 255
-1.1768105 -0.27154225 5.784104 33 37 27 255
0.90719825 1.7974149 -4.731244 58 22 20 255
1.4376994 1.8421085 -6.045418 13 9 16 255
-0.1494289 1.5740039 1.6396569 16 16 27 255
0.88867956 1.7871511 -4.4144654 38 7 11 255
-2.4241362 -0.9073383 5.605943 16 14 14 255
2.0564947 -0.43354723 3.1368873 76 70 44 255
0.20857081 1.7392044 -3.4054058 77 66 42 255
-2.4748814 -0.48471203 5.607133 64 54 40 255
2.1725717 -0.7344124 2.1114917 47 37 13 255
-2.4766827 0.4282347 5.593069 10 5 11 255
2.138411 -0.7058375 2.621203 157 150 131 255
-2.3127077 0.26046515 5.5980973 9 6 13 255
2.1714506 -1.0294731 2.379315 62 60 34 255
-2.1448512 0.23188446 5.6787477 54 65 27 255
2.7192962 -0.23673841 5.6019897 14 16 20 255
-0.31311917 1.4600033 4.532417 65 52 37 255
-1.3523471 0.06396405 5.782576 73 79 45 255
2.4025483 0.748441 -3.1894648 98 91 76 255
2.4207845 0.7313866 -3.2942154 73 72 54 255
2.1234481 -0.36942557 2.5103352 43 41 43 255
-1.2510868 -0.37585253 5.768425 116 114 74 255
2.1573882 -0.5884507 2.425874 93 89 78 255
2.3998291 -0.5546341 -3.592748 91 73 25 255
1.3375732 1.7604072 -3.0575511 92 85 62 255
-2.5680437 0.67201555 5.587876 82 74 53 255
2.1796813 -1.1358612 2.316028 74 74 52 255
0.5525056 1.7634841 -3.9186444 42 10 17 255
-2.3159804 -0.5339358 5.327231 34 30 21 255
-1.450517 1.5098419 2.409722 133 115 100 255
-2.453325 0.43699068 5.6030917 86 75 45 255
-0.80773675 1.0364898 2.423474 7 2 13 255
-2.3997226 0.43861237 5.603725 74 66 43 255
1.4359417 1.7867601 -3.9589653 89 75 49 255
0.6618059 1.7672637 -4.014836 42 21 27 255
1.2970608 1.7892735 -4.159334 42 13 14 255
2.1725192 -0.98912674 2.353222 63 61 35 255
-2.3403804 0.36246097 5.6030097 52 65 31 255
1.7336366 1.8001525 -3.7337027 88 82 59 255
0.9563811 1.7527332 -3.119939 20 10 18 255
1.3166248 1.7559379 -2.9738364 83 75 52 255
2.170874 -1.2386384 2.1281762 29 20 10 255
-2.3602204 0.6797543 5.595131 75 67 49 255
1.0501778 1.7529786 -3.0953438 86 74 49 255
0.94793963 1.7155687 -1.496819 104 78 45 255
2.0713193 0.29794982 3.245263 0 0 0 255
-0.6413425 1.7205822 -2.985309 98 90 79 255
-2.1671803 0.2449609 5.6403728 84 100 55 255
0.78572214 1.768773 -3.939338 77 71 51 255
-2.50973 0.534847 5.581447 67 62 39 255
2.5406458 0.49432057 4.6847925 4 0 9 255
0.47331795 1.748236 -3.45094 82 68 50 255
2.1684644 -1.2651571 2.1483362 29 20 11 255
-1.0141671 -0.91809464 5.790424 17 19 19 255
-1.5103141 1.3644993 5.7281356 117 108 85 255
2.1469858 -1.2836269 2.5488973 93 72 33 255
-1.2846532 -0.058289934 5.782401 129 121 87 255
2.4241288 1.1319174 -4.387155 65 64 43 255
0.8663942 1.7667391 -3.7585032 10 11 16 255
-0.4753143 1.5763457 1.4528209 65 16 19 255
-1.0557151 -0.43971747 5.7895675 39 41 29 255
-0.5945192 1.5659939 1.5109249 64 9 14 255
-1.3119905 0.002442984 5.783608 37 40 31 255
1.1767635 1.7801303 -3.771879 38 4 18 255
-2.1025085 0.6005532 5.5671053 143 137 121 255
2.172733 0.9054579 2.089641 104 97 87 255
-0.15112703 1.7465582 -3.9504554 83 72 44 255
2.1415913 -1.2863461 2.6778433 107 86 52 255
2.1690104 -1.2390538 2.412517 31 21 13 255
2.430589 0.96574265 -3.3000214 112 107 94 255
2.1531708 -1.2689335 2.5498035 129 109 52 255
1.7056477 -0.45838603 1.0252752 115 114 90 255
0.12608536 1.1670237 -4.890303 60 34 17 255
2.1600716 -1.2469347 2.576633 38 32 14 255
0.14542891 1.739049 -3.3498318 62 19 19 255
2.179352 -1.1534467 2.3245232 81 80 58 255
-1.6184452 1.5012491 2.4389021 55 53 68 255
0.6510652 1.7364339 -2.8301585 87 73 49 255
2.1633635 -0.6568791 2.1180708 53 40 13 255
2.1629896 -1.0857111 2.4563274 71 67 45 255
2.0606983 -0.42098585 3.108054 79 72 54 255
2.1438088 -0.9876605 2.689951 92 95 68 255
2.1584098 -0.86658424 2.5915284 80 81 66 255
2.1149082 -0.9900041 3.0079687 42 40 22 255
1.3948524 1.7414663 -2.1075137 43 29 19 255
2.3466384 1.7800373 -4.6748433 70 68 64 255
2.2518833 -1.6317126 2.5794356 117 111 96 255
0.031585034 1.4608783 4.7304425 72 61 41 255
2.1691008 -0.9318994 2.3710082 78 78 42 255
2.1718745 -0.8298058 2.3226602 102 103 71 255
2.1736157 -0.82942003 2.3735516 121 119 85 255
2.1392574 -0.7037752 2.6315255 81 75 62 255
2.167381 -0.7054647 2.3244264 46 41 25 255
2.1479719 -0.662283 2.5303 78 68 59 255
1.278067 1.7361457 -2.62417 83 74 53 255
2.1690793 -0.6837187 2.3062258 69 65 43 255
2.166858 -0.63299483 2.3146884 88 77 60 255
0.59394306 1.7439258 -3.2459674 86 71 55 255
2.1265519 -0.70149434 2.751542 61 58 49 255
-1.762496 1.4120978 4.698511 71 53 39 255
2.3980541 0.7664192 -3.1520495 94 91 76 255
2.1216612 -0.68291193 2.8219051 49 45 39 255
2.547802 0.8646004 4.3409805 32 20 19 255
0.6828652 1.7806765 -4.3004813 85 68 59 255
1.2152061 1.7424064 -2.796575 87 76 57 255
2.150762 -0.66147393 2.5014937 157 150 131 255
2.1533616 -0.652791 2.4896977 59 57 43 255
2.1477835 -0.70379585 2.553974 94 90 76 255
2.1748013 -0.528983 2.151039 77 65 28 255
1.1168706 1.7454406 -3.0983768 19 16 22 255
2.1490557 -0.65190405 2.5230954 141 132 121 255
2.141898 -0.6280531 2.5925958 66 65 61 255
2.478189 -1.0139158 6.053679 50 49 30 255
2.1646025 -0.49795258 2.2997317 58 59 44 255
2.290791 0.6615715 -2.3504343 22 18 23 255
2.0229738 -1.8089818 4.9689856 130 114 97 255
2.1245894 -0.67052084 2.7922876 55 52 46 255
0.4457382 1.7586802 -3.8382685 87 78 47 255
2.1725044 -0.479825 2.220225 74 71 54 255
1.1349976 1.7448975 -2.8348625 84 72 59 255
2.1433778 -0.66577625 2.5729618 85 75 66 255
1.4077415 1.8375477 -5.9409194 8 4 13 255
2.166898 -0.42314556 2.1445577 45 35 19 255
0.7559614 1.7351414 -2.7586246 78 66 46 255
2.1774635 -1.2385079 2.2581851 73 58 35 255
2.6943064 -0.17321178 5.617685 6 4 17 255
2.1683993 -0.3881869 2.2020943 72 65 49 255
-0.027473468 -1.0430706 3.3725193 93 82 65 255
0.5921101 1.7589481 -3.715348 13 13 19 255
2.1158524 -0.3397893 2.412042 83 72 50 255
2.436877 -0.7782052 -3.8872013 114 102 72 255
-0.58967245 1.5612527 1.6327864 66 10 19 255
2.6585176 -0.19116375 5.3516936 27 19 19 255
2.1217651 0.0067920876 2.4743457 100 87 66 255
0.43868965 1.7930186 -5.125179 69 54 33 255
2.0596914 -0.55167365 3.131217 122 104 57 255
0.6500793 1.7653972 -3.853405 75 63 43 255
2.1745043 -1.26281 2.3219848 80 65 31 255
2.1486974 5.663536e-05 2.7711794 90 82 60 255
2.2876089 1.6224538 -2.7054627 20 11 17 255
2.0713348 -0.078600734 3.4366798 52 54 33 255
0.9366141 1.7467765 -2.8100064 50 10 16 255
2.099044 -0.68065387 3.0515382 26 23 14 255
2.0520203 -0.020098962 3.1176863 90 77 59 255
1.8466189 1.7767417 -3.017205 45 30 11 255
0.7099146 1.7581015 -3.5782983 46 13 19 255
2.1208854 -0.32873794 2.6215055 70 67 43 255
0.46463487 1.7988536 -5.1513906 13 4 11 255
1.8645858 0.29190332 2.270059 62 52 35 255
2.6941493 0.40937132 4.687619 110 86 92 255
2.171221 -0.6689208 2.1311162 95 80 44 255
2.635087 0.37145913 5.6642156 52 37 39 255
2.6977704 -0.7284479 6.056418 71 76 54 255
0.90937465 1.8439151 -5.92552 32 5 17 255
2.5266955 0.7365227 4.831351 9 3 13 255
2.4128225 1.2914478 -4.518597 96 93 82 255
2.3023057 -1.4654499 1.3294554 19 14 10 255
1.9259932 -1.7665365 3.110421 160 146 130 255
2.4190025 0.8277174 -4.4436316 143 139 129 255
2.1381521 -0.625257 2.6294568 53 51 52 255
0.38993883 1.7252595 -2.848822 81 68 54 255
-0.58625257 1.5309767 2.350991 92 77 62 255
2.6205423 -1.0191884 5.084509 57 27 23 255
2.4228132 0.97906727 -4.4943323 95 90 83 255
2.1890178 -1.1497538 2.220466 88 85 62 255
-2.311299 1.4816899 2.9676032 96 64 28 255
2.1781561 -1.1316215 2.3462665 73 73 52 255
2.6775281 -0.051598813 4.735078 10 1 8 255
2.163256 -1.1215222 2.4974377 43 42 28 255
2.1302788 -0.99503887 2.7966526 103 103 69 255
0.74569803 1.7111564 -1.3372997 67 43 18 255
2.1077797 -0.60627973 2.9170904 55 52 45 255
0.9872826 1.8338444 -5.827306 66 49 30 255
0.70885545 1.7296482 -2.6416867 45 19 20 255
2.163948 -1.2348996 2.529723 57 52 31 255
0.76262724 1.7558376 -3.480316 41 14 18 255
2.1385267 -0.905184 2.7061229 140 139 108 255
2.1562572 -0.8544033 2.5036724 127 126 99 255
2.1421158 -1.3009198 3.1504877 73 90 52 255
2.1390893 -0.82717645 2.6830065 160 161 144 255
2.174139 -1.2249826 2.3849702 73 71 51 255
2.1503434 -0.79846007 2.5539908 126 127 114 255
2.4087772 0.9661845 -5.6256466 9 3 14 255
0.7203955 1.7353753 -2.8195457 82 71 51 255
2.1156511 -1.0728713 3.056206 57 46 21 255
0.92750204 1.8273453 -5.4398193 42 6 11 255
2.1458097 -0.75987005 2.57467 123 123 111 255
2.786373 -0.5847109 -6.098949 41 32 30 255
-1.2101921 1.5086701 2.5312076 26 28 42 255
2.4211352 1.0908203 -4.5339165 102 102 94 255
2.1669204 -0.7113262 2.3639402 37 30 19 255
1.3414426 1.8087565 -4.6501465 78 63 37 255
-1.783819 1.4871194 2.9291496 138 94 28 255
2.1327283 -0.65329 2.6838567 126 117 107 255
2.1439428 -0.8778153 2.6916187 82 87 66 255
2.1600912 -0.59994346 2.3897424 64 52 43 255
2.4883707 1.2075871 2.8149297 4 6 17 255
2.1585314 -0.5918484 2.4095984 26 23 24 255
2.1254027 -0.35876074 2.4404004 116 110 120 255
0.84294873 1.4876935 4.4264817 79 52 43 255
2.158379 -0.59170955 2.4096212 26 23 24 255
2.1670856 -0.57196337 2.3130577 61 60 52 255
2.4278524 0.35746294 6.1136193 117 116 95 255
2.1547954 -0.4887117 2.4106266 58 60 60 255
2.376194 0.81413764 -3.0275252 75 89 63 255
2.4270103 0.7505717 -4.525673 142 139 129 255
2.123346 -0.6718734 2.8096306 70 62 52 255
2.0689535 -0.015764538 3.0300405 90 81 61 255
0.9559048 1.8132144 -5.0415797 69 50 31 255
2.142554 -0.92148304 2.6938128 85 87 62 255
2.1579664 -0.0124350265 3.1807716 89 78 52 255
-0.7770311 1.5461109 2.019647 61 13 21 255
1.4093968 1.3892491 5.991755 115 98 82 255
0.9960445 1.7854649 -4.1226482 54 40 26 255
2.1893728 0.4831996 1.9516511 58 59 44 255
0.73454005 1.7628012 -3.796488 51 8 14 255
2.0923264 0.4289353 3.311722 96 88 77 255
1.1713151 1.7213064 -1.9897027 62 38 11 255
2.4950058 1.2010562 2.7790914 10 11 24 255
-1.5158314 0.2965958 -1.6670815 170 156 144 255
2.0905175 0.4293716 3.311342 96 88 77 255
2.5067978 0.52112436 6.10082 97 82 62 255
0.8840726 1.7360259 -2.774942 83 70 53 255
2.1703928 -0.54219526 2.2687573 52 43 42 255
2.1882806 -1.5851568 2.167474 106 100 80 255
2.796861 0.08266513 -5.6682987 110 75 43 255
1.1009133 1.7476965 -2.90138 74 68 46 255
2.1888475 0.5983819 2.0905929 67 62 43 255
2.1510746 -0.8375992 2.5502553 60 54 35 255
2.6995032 0.4175659 4.5015 84 65 69 255
2.1715982 -0.7397641 2.2944534 47 44 24 255
2.1061842 -0.7913748 3.0117059 21 22 18 255
-1.9080695 1.4443346 4.474263 77 52 21 255
1.2291199 1.7562821 -3.3620038 46 28 20 255
2.1578631 -0.6864157 2.4392037 41 33 23 255
1.4589491 1.7011902 -2.094293 103 95 85 255
2.1585095 -0.5693856 2.3961637 85 69 53 255
2.1015015 -1.004254 3.085608 80 66 34 255
1.2286519 1.831917 -5.8193235 19 6 11 255
1.977793 1.5633272 3.2798746 74 66 53 255
2.172569 -0.5103325 2.182108 25 23 19 255
2.199018 -0.19502665 2.1298115 106 121 85 255
2.431873 1.3610915 2.8247159 44 44 54 255
1.856589 1.8314568 -5.1089983 96 61 31 255
2.0632362 -0.04149017 3.3864307 115 106 85 255
2.2307436 1.8457683 -5.782708 101 59 0 255
2.4585085 0.19761631 6.090001 101 108 82 255
2.1721375 1.5107337 1.7070115 57 53 33 255
1.0513221 1.8271998 -5.3927045 47 7 16 255
2.1838152 0.41968206 2.092321 117 109 95 255
2.4190795 1.3357505 2.7639163 83 89 107 255
0.21080527 1.7963855 -5.2106676 39 9 14 255
2.0486007 -0.39986604 3.110732 26 19 10 255
1.0625272 1.737117 -2.4257262 50 30 23 255
2.1580038 -1.2418997 2.4812398 29 27 13 255
0.53352225 1.7398832 -3.1128988 81 69 52 255
-0.6208423 1.7600119 -4.521765 0 0 0 255
2.123915 -0.33563265 2.331867 42 34 19 255
2.1152225 -1.0201795 3.0030243 29 29 21 255
2.2150688 0.08220798 1.3811742 79 84 60 255
2.1784372 -0.9026062 2.1518545 61 46 18 255
2.160604 -0.99212587 2.4580412 72 69 50 255
0.41070467 1.6716965 -0.42056888 120 93 70 255
-1.4687526 1.5518004 1.4681511 81 22 21 255
2.0581083 -0.39798048 3.1015384 35 29 13 255
0.05551387 1.6689892 -0.65626854 93 62 23 255
2.1517422 0.6830426 1.6467346 67 65 50 255
0.9163765 1.7126487 -1.5276611 106 79 46 255
2.1555755 -0.7787086 2.5307062 70 68 53 255
13.343712 12.284347 -7.978037 77 66 39 255
2.7573178 0.3831541 6.1478605 110 116 89 255
1.0578063 1.759571 -3.1518147 50 13 20 255
2.1859612 0.48663166 1.9599928 73 71 59 255
2.1749914 -0.49929896 2.2849665 74 72 64 255
1.0934008 1.5957358 2.0936844 13 8 13 255
2.1655061 -0.6321862 2.3154676 92 83 76 255
2.215434 0.5567264 1.71103 92 106 77 255
2.4289474 0.5658866 -4.388094 164 162 167 255
-1.1733023 1.5467398 1.7565457 27 27 38 255
-1.5744482 1.505624 2.6907718 59 54 71 255
12.9783325 12.143268 -8.171802 78 66 43 255
2.181007 -1.2564443 2.217375 83 65 30 255
0.0053928224 1.760698 -4.1224566 0 0 0 255
3.2095258 0.34022304 0.14551245 254 254 254 255
2.1846514 -1.2576857 2.218298 83 65 30 255
2.2612958 0.16363436 -4.11219 106 99 73 255
-1.5363255 1.5326644 1.8266058 30 30 43 255
1.2705046 1.8286542 -5.6891174 22 13 13 255
2.170941 -1.0505328 2.603529 99 96 69 255
2.3954291 0.98280245 -3.218006 118 112 97 255
2.1599119 -1.2718626 2.4936583 118 92 37 255
-2.321202 1.1068907 -3.061725 16 11 19 255
2.1634185 -0.578208 2.3660553 21 22 24 255
2.1322722 -0.52182174 2.65995 64 63 70 255
2.1518922 -0.6547159 2.486272 55 53 43 255
2.1673725 -0.41897056 2.3065474 23 27 27 255
2.4389663 1.3871279 -4.372388 75 69 59 255
0.5880087 1.7411749 -3.1376126 45 10 18 255
1.0861222 1.7128725 -1.326423 52 37 11 255
2.7676613 0.07513913 4.5792246 21 18 25 255
2.6614976 -0.663646 6.079564 10 3 13 255
0.941327 1.8227254 -5.4930344 83 67 52 255
1.2209746 1.7641449 -3.3908496 79 67 52 255
2.0754607 -0.58370304 3.1124098 112 94 51 255
2.1139576 -0.38194197 2.920821 116 113 108 255
2.1579428 0.22969581 1.8764703 141 128 114 255
2.153932 0.31173483 1.8765582 141 131 118 255
2.1454167 -0.43060005 2.130234 34 26 8 255
-2.3488004 0.7859806 -3.0543928 30 28 42 255
2.0836506 1.8469882 -5.857072 97 61 9 255
1.3609933 0.82159853 -1.8650264 17 9 13 255
2.7185624 0.206639 6.1573315 92 93 75 255
2.385679 0.15230186 -4.057842 141 129 108 255
2.1980424 0.48817515 2.0977986 11 10 9 255
2.1390388 -0.3614269 2.3621974 89 76 58 255
1.3214058 1.8333771 -5.739954 88 68 43 255
0.38246036 0.42383012 3.7548387 16 7 11 255
2.0428612 -0.09547139 3.438899 43 46 23 255
2.0692358 0.7975986 3.3763962 89 85 74 255
2.1454802 0.58532566 1.8453825 83 97 65 255
2.1708546 -0.47244337 2.1527672 92 76 44 255
2.2457192 0.46828648 1.4909328 61 70 45 255
1.0174109 1.7418962 -2.791202 81 70 51 255
2.559881 0.7370742 6.0757103 127 109 110 255
2.083231 -0.5435604 3.096273 106 88 43 255
0.98593205 0.9786576 -7.0008993 69 90 52 255
2.4906747 1.2646272 2.8317187 27 27 39 255
2.4202497 -0.11487049 6.0964136 111 114 95 255
2.472587 0.43876404 5.45592 102 66 57 255
2.1717675 0.39579755 2.2183344 76 67 45 255
2.6800933 0.37482727 6.115057 101 104 83 255
2.7395928 0.2816639 6.053922 16 13 19 255
2.109321 0.0100648515 2.4287348 91 79 53 255
2.0727518 0.17353894 3.5418756 81 87 53 255
2.1642332 -0.56368285 2.9597564 43 44 37 255
2.1760955 0.6903848 1.6671946 95 85 73 255
2.145746 0.38085428 2.5402124 67 63 39 255
0.5361599 1.6886162 -1.1481419 127 93 64 255
2.14107 -0.31979764 2.1979642 61 53 25 255
2.799502 -0.019696966 -5.6612544 178 126 87 255
2.1406872 -0.6386928 2.6062334 117 109 88 255
2.6559882 -0.6978469 4.988719 13 13 16 255
1.0794142 1.7381089 -2.7565975 11 10 19 255
1.3084944 1.7457253 -2.6841896 43 18 21 255
2.174025 -1.0718694 2.4772282 35 37 24 255
2.1457193 -1.3069122 3.131281 70 88 51 255
2.1721342 -1.2669097 2.1329854 76 60 40 255
2.1684344 -0.61692274 2.21465 42 39 32 255
0.9726882 1.7141393 -1.5117757 63 41 17 255
2.1459544 -1.2524295 2.5956683 95 79 43 255
1.0681018 1.7483999 -2.9079943 85 74 54 255
2.1638823 -1.2433151 2.5037827 26 23 9 255
2.186214 -1.0367842 2.1170073 43 37 10 255
0.31556538 1.7277355 -2.841754 84 77 62 255
2.4110286 -0.29086626 -4.1281166 181 168 121 255
2.1659784 -1.2411143 2.4518118 26 21 9 255
2.1331234 -1.5746279 3.1744223 97 108 72 255
0.27155685 1.7568169 -3.8620222 75 61 42 255
2.1797733 -1.153527 2.324193 81 85 61 255
2.1738908 -1.1410191 2.3615255 47 46 28 255
2.395871 -1.0211638 -3.7376854 101 84 33 255
0.60866284 1.7416506 -3.1259067 81 69 47 255
0.27574545 0.49385738 -7.0700955 34 31 13 255
2.153615 -1.0420948 2.5907493 54 53 32 255
2.1658363 -1.1083108 2.4544709 68 66 45 255
2.1445253 -0.76140594 2.5634718 90 91 75 255
2.1660075 -1.0741857 2.457908 113 109 81 255
2.1356208 -0.7104783 2.6818845 157 145 139 255
2.1692348 -0.9763181 2.3903031 97 98 67 255
2.1592183 -1.0596446 2.4551547 67 67 46 255
1.4529343 1.8125771 -4.75448 100 83 58 255
2.1218894 -0.89259183 2.895701 85 82 52 255
1.1281718 1.7318624 -2.098407 96 72 42 255
2.2050235 -1.1032414 2.203893 52 50 29 255
-2.3548176 1.2714516 5.3976274 46 40 24 255
2.1724296 -0.89052665 2.329565 71 70 40 255
2.1684852 -0.883879 2.383562 72 77 47 255
1.1298256 1.7274569 -2.0018296 111 89 52 255
2.422681 0.83875614 -4.4379835 121 119 111 255
1.0553038 1.8340359 -6.2287593 61 49 31 255
1.689138 1.6298165 2.1999233 63 58 38 255
2.4021106 1.8327994 -5.2320614 116 73 30 255
2.1725607 -0.8256708 2.1208851 94 80 37 255
-0.3908298 1.7410761 -3.9447334 67 55 39 255
1.2403519 1.7481481 -2.9386866 80 72 52 255
2.1321404 -0.85859054 2.7572954 77 85 63 255
2.124133 -0.81001097 2.806224 122 122 94 255
2.177138 0.750068 1.6437075 73 64 52 255
12.380824 11.241992 -12.692316 60 32 22 255
2.129263 -0.77066576 2.7816882 81 79 50 255
2.1794517 -0.8797329 2.2216756 59 57 35 255
1.8677361 1.774739 -3.189022 76 70 49 255
2.1649733 -0.737915 2.3805926 81 76 57 255
2.164134 -0.6427034 2.1487453 72 58 17 255
0.69719934 1.7385947 -3.6224313 43 13 20 255
2.1228712 -0.6903059 2.850593 70 66 51 255
2.152796 -0.6748249 2.493387 61 58 43 255
2.0749717 -0.444156 3.113469 100 85 46 255
2.384285 1.6250304 -4.619504 93 86 74 255
2.1405966 -0.65169656 2.6094177 150 142 131 255
1.292632 -0.27681395 0.58357096 60 52 37 255
1.4003526 1.7019037 -1.9490294 115 102 95 255
2.1673765 -0.6406782 2.32943 37 31 24 255
2.07353 -0.35494816 3.0797083 97 83 46 255
1.8275727 0.96842647 -7.236146 120 113 85 255
2.1478083 -0.6106841 2.520051 51 52 54 255
2.4220715 0.50418895 -4.184068 123 121 106 255
0.90175396 1.7102689 -1.3418493 53 31 2 255
0.8300274 -0.24959633 4.3483963 13 11 16 255
2.1438975 -0.6030445 2.5672638 97 90 90 255
2.0972257 -0.3430063 2.759471 144 129 78 255
2.1543844 -0.56441635 2.1137836 145 128 91 255
2.1531396 -0.3609072 2.2910237 67 62 41 255
0.72987247 1.7297335 -2.6377745 45 18 19 255
2.1592925 -0.39256555 2.1660097 52 43 30 255
2.1134765 -0.22362493 3.2068043 104 122 80 255
2.1393273 -0.3309397 2.14355 70 71 51 255
2.1134732 -0.22269042 3.2066493 104 122 80 255
2.0891736 -1.2596856 3.1044078 50 42 30 255
2.780092 -0.018219527 -5.73134 25 26 22 255
2.137268 0.5641404 1.5673761 18 16 10 255
3.0434918 -0.81314546 4.6139684 47 58 32 255
1.9963002 1.7733401 -3.028486 68 62 45 255
2.1340528 0.0067878836 2.4865828 93 81 55 255
2.1131885 -1.2968754 2.9994788 92 75 41 255
2.1846318 -1.1580789 2.2316456 37 41 25 255
12.892759 11.326419 -11.970611 11 9 19 255
2.1028776 -1.257401 3.0722027 32 27 9 255
2.1415079 -0.3513252 2.1136067 52 45 31 255
-1.3098955 1.5620002 1.2304598 134 112 97 255
2.1077857 -1.2487036 3.0849748 84 68 41 255
1.3469539 1.7629381 -3.1235144 34 13 16 255
2.1743443 -1.2372581 2.3663487 30 25 7 255
2.1507647 -0.02235021 1.907983 92 85 61 255
0.85211265 1.8271514 -5.6567593 39 11 20 255
0.9899169 1.5856907 2.2208471 62 52 35 255
2.1822343 -1.1190778 2.125159 52 41 19 255
2.1204467 -1.0801338 2.943193 119 116 82 255
1.5056707 1.8242869 -5.45734 17 11 22 255
2.18098 -1.1181462 2.1101437 87 70 41 255
1.3214658 1.745299 -2.7673166 79 68 51 255
2.167765 -1.2750331 2.0662096 106 119 88 255
2.314029 0.7579536 -2.4025197 43 60 26 255
2.1822972 -1.1073554 2.2670252 65 62 43 255
2.2243917 0.6435237 1.7086715 85 88 67 255
1.4828287 1.8018222 -4.33759 82 68 44 255
2.4942436 0.78571165 5.140716 19 5 11 255
0.5581493 1.7218057 -2.1479049 100 73 46 255
2.178293 -1.036477 2.3146315 75 71 45 255
2.1725657 -0.9012423 2.109176 38 31 18 255
2.1687908 -0.9017328 2.341791 121 117 77 255
0.24369484 -1.441935 -2.5674462 133 124 116 255
2.1372294 -0.89439523 2.7176774 81 85 66 255
2.1757147 -0.8731706 2.126063 97 76 33 255
0.9341073 1.7226703 -1.742503 69 45 16 255
-2.4767814 1.4317324 3.4980366 180 154 127 255
1.8905543 1.4409349 -6.966488 145 128 122 255
2.557213 0.86732787 4.3589106 31 20 19 255
2.1723309 -0.77912617 2.1112475 43 34 16 255
2.1797533 -0.8574179 2.1538405 55 43 14 255
2.125094 -0.78735715 2.818203 111 109 81 255
2.0720177 -0.561832 3.1201825 59 44 8 255
2.3587685 0.33129168 -3.0852885 149 144 122 255
2.1323223 -0.71655977 2.726612 81 78 62 255
2.1643786 -0.71007293 2.3636816 37 32 20 255
2.1844525 0.017593738 1.9005353 112 106 79 255
-1.4297882 1.5022556 2.6759226 51 45 57 255
2.1312523 -0.6932032 2.7196658 136 124 109 255
2.2121246 0.9942438 1.889361 97 88 73 255
1.3297632 1.7592041 -2.9721768 78 72 51 255
2.0502682 0.46418357 3.7256472 70 84 50 255
2.8139224 0.3146899 -6.001238 16 9 9 255
2.5518763 0.84372836 4.6988378 59 43 27 255
2.0881362 -0.6237571 3.074203 82 70 31 255
2.2159538 0.81929547 2.111465 108 102 95 255
1.2451447 1.8064615 -4.564737 79 65 33 255
2.6220987 -0.22829144 6.106618 130 112 96 255
-1.4637054 1.4913329 2.8397639 172 148 136 255
2.8214097 0.14648297 -6.0399156 83 52 32 255
2.0922842 -0.6057263 3.073981 88 75 40 255
2.085343 -0.5794541 3.0968897 102 84 38 255
0.73714393 1.7462393 -3.2224658 49 10 10 255
0.95060873 1.7179462 -1.8098819 104 76 46 255
2.1451478 -0.34976697 2.2646105 97 96 92 255
1.2195365 1.7873693 -4.206295 78 67 37 255
2.1769545 -0.53971595 2.1403515 65 51 19 255
2.086067 -0.51931375 3.0778847 77 64 30 255
2.170097 -0.48656702 2.2439542 76 76 65 255
2.170085 -0.48580086 2.2437494 76 76 65 255
1.1434374 1.5862459 2.198166 58 41 32 255
2.0803943 -0.46969017 3.0800703 77 65 32 255
2.1350605 0.4469905 2.6612692 115 108 110 255
2.2453337 1.8199041 -4.9778304 95 62 33 255
2.0553427 -0.4199795 3.109599 73 67 45 255
1.689607 1.8132323 -4.778501 90 67 52 255
2.8379214 0.5270036 6.2809734 138 136 114 255
0.782436 1.8186724 -5.1123548 32 11 18 255
2.1720493 -1.0866438 2.3845167 85 84 60 255
2.9253256 -0.5673856 4.128345 37 41 18 255
0.9356906 0.56932783 -7.0018797 75 93 54 255
2.1449223 0.39154312 2.5989192 82 72 55 255
2.101564 -0.36562666 2.7556865 151 152 174 255
2.1782322 0.7039606 2.0957139 45 40 24 255
1.96135 1.3225777 -5.082068 173 132 97 255
2.1119475 -0.33438715 2.556976 123 106 62 255
2.1238053 -0.32872936 2.5989385 66 63 37 255
2.1511204 -1.0945601 2.6461263 100 95 66 255
2.263684 -0.1859863 1.3822633 27 35 14 255
2.112803 -0.21965571 3.1964502 134 156 117 255
2.2195096 -0.022577317 1.7691869 45 53 22 255
2.1266387 0.016107837 2.4244394 89 77 51 255
2.683376 -0.15092443 4.766492 108 94 88 255
1.0127751 1.7105681 -1.2868309 104 79 43 255
1.4016504 1.477122 -1.7982516 157 145 139 255
2.002277 -0.024603205 2.6452963 121 109 85 255
0.64404666 1.7437791 -3.1917064 45 16 22 255
0.48044664 0.49757493 3.7049406 6 3 13 255
1.3339185 1.7762932 -3.8238947 73 63 40 255
2.0781384 -0.025766432 3.3568935 81 67 39 255
1.450598 1.6256989 1.7873013 55 40 28 255
2.74796 0.05893778 4.5345774 42 45 55 255
2.1952074 0.18916117 1.9212412 95 82 55 255
2.3821363 0.3415762 -4.0769467 174 167 149 255
2.1669292 -0.41057697 2.1663456 82 69 44 255
2.7639534 0.09166644 4.468313 51 57 51 255
1.2540257 1.8494703 -6.318722 67 52 28 255
2.7243123 0.12058266 4.6974626 14 13 18 255
0.41409436 1.7856876 -4.7407703 62 55 37 255
2.1544876 0.28288862 1.8834816 86 80 50 255
2.4324737 1.3095157 2.732376 14 20 38 255
2.1838844 0.49311364 2.0814354 97 85 72 255
0.53012264 1.610665 1.4972936 102 86 73 255
1.1262258 1.7451483 -2.7930624 78 69 49 255
2.100775 0.42363095 3.2409673 107 97 79 255
1.1787982 1.7697673 -3.4757333 96 85 58 255
2.167488 0.6468501 1.3866509 55 59 38 255
2.0793648 0.4796182 3.3639593 102 99 84 255
2.4344928 0.52099717 -4.526898 126 122 108 255
0.7850009 1.7510024 -3.3169441 83 72 40 255
-0.4972873 1.4647217 4.29474 80 63 50 255
2.0819263 -1.335823 3.0453706 116 134 95 255
2.165854 -1.2811412 2.0835183 37 30 14 255
2.1154988 0.012132531 2.4271247 94 80 55 255
2.1723814 -1.284289 2.081389 37 30 14 255
